1777
1.285299 1.414992 0.109712
1.278033 1.420259 0.109893
1.270768 1.425708 0.108440
1.263684 1.430976 0.108804
1.256418 1.436244 0.108622
1.249334 1.441511 0.109167
1.241887 1.446961 0.107169
1.234803 1.452228 0.106806
1.227719 1.457496 0.108440
1.220816 1.462400 0.111165
1.213369 1.468031 0.108985
1.206285 1.473117 0.110257
1.199019 1.478566 0.109167
1.191390 1.484197 0.106261
1.183761 1.489828 0.103173
1.176314 1.495459 0.100448
1.168685 1.501090 0.097178
1.161056 1.506902 0.092456
1.153427 1.512715 0.089005
1.145798 1.518346 0.085190
1.137624 1.524522 0.077380
1.130177 1.530153 0.075018
1.122911 1.535602 0.075018
1.115101 1.541414 0.069569
1.107472 1.547227 0.065754
1.099843 1.552858 0.064120
1.092214 1.558489 0.060487
1.084585 1.564301 0.056309
1.076956 1.569932 0.053948
1.069145 1.575926 0.048680
1.061334 1.581739 0.043776
1.053342 1.587733 0.038326
1.045713 1.593546 0.035057
1.038084 1.599177 0.033059
1.030819 1.604626 0.032696
1.023916 1.609530 0.037237
1.016651 1.614798 0.037237
1.008840 1.620792 0.033059
1.001211 1.626423 0.031061
0.993582 1.632054 0.028518
0.986135 1.637685 0.026520
0.979232 1.642589 0.030698
0.971967 1.648038 0.031787
0.964519 1.653488 0.029789
0.956527 1.659482 0.025612
0.949080 1.664931 0.025067
0.941632 1.670562 0.023795
0.933822 1.676374 0.020344
0.925829 1.682550 0.014168
0.904577 1.697990 0.021434
0.898402 1.702349 0.031242
0.890591 1.707980 0.029608
0.882780 1.713793 0.026520
0.874788 1.719787 0.021797
0.867522 1.725236 0.022342
0.860802 1.729959 0.028518
0.853354 1.735408 0.027791
0.845725 1.741221 0.025430
0.859167 1.740494 0.029426
0.866614 1.735226 0.020344
0.875696 1.728506 0.023069
0.884960 1.721603 0.027791
0.894042 1.714883 0.031969
0.902398 1.708707 0.030698
0.926374 1.691451 0.015621
0.935457 1.684730 0.019617
0.944357 1.678009 0.022705
0.953076 1.671652 0.022887
0.961431 1.665476 0.021615
0.970332 1.658937 0.024703
0.979051 1.652398 0.026520
0.987769 1.646040 0.027610
0.996670 1.639501 0.029426
1.005570 1.632962 0.031606
1.014289 1.626605 0.033604
1.023371 1.619884 0.038145
1.031908 1.613526 0.038508
1.039901 1.607714 0.033967
1.048438 1.601356 0.035057
1.057702 1.594454 0.040143
1.066602 1.587915 0.044321
1.075684 1.580831 0.051223
1.084585 1.574292 0.054674
1.093667 1.567571 0.059760
1.102567 1.560850 0.064120
1.111649 1.553948 0.069569
1.120731 1.547227 0.075200
1.129632 1.540506 0.080286
1.137987 1.534512 0.079196
1.147433 1.527246 0.088278
1.156152 1.520889 0.090094
1.165234 1.513986 0.096089
1.173953 1.507447 0.100993
1.182853 1.500908 0.104626
1.191390 1.494551 0.107532
1.200291 1.488012 0.110983
1.208646 1.481654 0.111347
1.217002 1.475660 0.111165
1.225357 1.469484 0.111347
1.233894 1.463127 0.114434
1.241523 1.457677 0.107532
1.250061 1.451502 0.107350
1.258234 1.445326 0.106987
1.266408 1.439332 0.106442
1.274946 1.433156 0.107714
1.283301 1.427162 0.107350
1.291657 1.420804 0.108440
1.300194 1.414447 0.110620
1.308368 1.408634 0.109530
1.316723 1.402277 0.111165
1.325260 1.396101 0.112255
1.332526 1.391015 0.102446
1.340700 1.385202 0.100630
1.349055 1.379026 0.101720
1.357048 1.373214 0.099540
1.365222 1.367038 0.098995
1.373395 1.361225 0.097542
1.381388 1.355231 0.095907
1.389562 1.349419 0.094454
1.397372 1.343969 0.089186
1.405728 1.337612 0.090639
1.414447 1.331073 0.096997
1.421712 1.326169 0.085735
1.428796 1.321264 0.072838
1.436425 1.315815 0.066844
1.444781 1.309639 0.068297
1.452773 1.303645 0.068116
1.461129 1.297651 0.069206
1.469302 1.291657 0.068842
1.486377 1.278760 0.078469
1.495096 1.272221 0.084464
1.503451 1.266045 0.087188
1.511988 1.259869 0.089913
1.520162 1.253693 0.092819
1.528518 1.247518 0.094999
1.537055 1.241160 0.099721
1.545411 1.234984 0.102991
1.553584 1.228808 0.104626
1.561758 1.222996 0.104081
1.569751 1.217002 0.104081
1.577924 1.211008 0.104807
1.585735 1.205377 0.102628
1.593909 1.199201 0.104263
1.601901 1.193570 0.102083
1.609167 1.188302 0.094091
1.616796 1.182853 0.089186
1.624425 1.177404 0.084464
1.632599 1.171410 0.085372
1.640773 1.165415 0.087188
1.648765 1.159603 0.086825
1.656031 1.154517 0.077016
1.662388 1.150339 0.056854
1.670199 1.144708 0.052676
1.677646 1.139622 0.045411
1.685638 1.133628 0.045411
1.693812 1.127634 0.049225
1.701986 1.121458 0.051405
1.709797 1.116009 0.047772
1.717789 1.110015 0.050315
1.725781 1.104020 0.050496
1.733773 1.098208 0.052676
1.741039 1.093122 0.041778
1.748668 1.087673 0.037782
1.756479 1.082042 0.036510
1.764471 1.076047 0.037237
1.772281 1.070417 0.036328
1.780274 1.064786 0.034330
1.787176 1.059881 0.021979
1.795168 1.054069 0.021979
1.802979 1.048256 0.022705
1.810971 1.042444 0.023069
1.819145 1.036268 0.027610
1.827319 1.030274 0.032696
1.835311 1.024279 0.036147
1.843485 1.018104 0.041051
1.851477 1.012291 0.041414
1.858925 1.006842 0.038145
1.866554 1.001393 0.034694
1.874183 0.995943 0.032151
1.881812 0.990494 0.027791
1.889441 0.984863 0.025430
1.897433 0.979051 0.027791
1.905062 0.973420 0.025612
1.912509 0.968152 0.021434
1.919775 0.963248 0.009990
1.927222 0.957798 0.007266
1.935033 0.952168 0.006539
1.942662 0.946537 0.004541
1.950291 0.940906 0.003633
1.958101 0.935275 0.004178
1.965912 0.929644 0.003270
1.973541 0.924013 0.003814
1.981351 0.918201 0.003633
1.988980 0.912570 0.004904
1.996791 0.906757 0.005994
2.004420 0.901308 0.005268
2.012231 0.895495 0.006539
2.019860 0.889864 0.006357
2.027670 0.884233 0.006357
2.035299 0.878603 0.009082
2.042928 0.873153 0.004541
2.050557 0.867341 0.007266
2.065815 0.856261 0.006721
2.073626 0.850630 0.007266
2.081255 0.844999 0.009264
2.088702 0.839731 0.005086
2.096331 0.833919 0.006902
2.103960 0.828288 0.007266
2.111589 0.822657 0.008537
2.134294 0.806127 0.007992
2.141923 0.800678 0.007992
2.149370 0.795047 0.007266
2.156999 0.789416 0.009990
2.164628 0.783967 0.008719
2.172257 0.778336 0.009264
2.179705 0.772887 0.010717
2.187152 0.767619 0.007447
2.202228 0.756539 0.007811
2.217123 0.745459 0.009264
2.224752 0.740010 0.009809
2.232199 0.734379 0.010354
2.239646 0.728930 0.010354
2.247094 0.723662 0.009082
2.254541 0.718213 0.007629
2.276883 0.701865 0.008356
2.284330 0.696416 0.007084
2.291778 0.690966 0.009264
2.299225 0.685517 0.009990
2.306672 0.680068 0.008356
2.314120 0.674619 0.008900
2.321567 0.669169 0.009445
2.328833 0.663720 0.010172
2.336280 0.658452 0.009082
2.343546 0.653185 0.007266
2.350993 0.647736 0.006721
2.373335 0.631569 0.009264
2.380601 0.626120 0.008356
2.395314 0.615403 0.009082
2.410027 0.604686 0.009809
2.417292 0.599237 0.009627
2.424558 0.594151 0.004723
2.432005 0.588702 0.008356
2.439271 0.583253 0.011080
2.446537 0.577985 0.007266
2.453802 0.572717 0.010354
2.461068 0.567268 0.009809
2.468334 0.562000 0.009082
2.475781 0.556733 0.009627
2.482865 0.551465 0.009627
2.490131 0.546198 0.007811
2.504662 0.535662 0.007629
2.519012 0.524946 0.009264
2.526459 0.519678 0.010354
2.533543 0.514410 0.008719
2.540809 0.509143 0.008537
2.548075 0.503875 0.009990
2.555159 0.498607 0.010535
2.562424 0.493340 0.007084
2.569508 0.488072 0.009990
2.576774 0.482805 0.008174
2.584040 0.477537 0.010354
2.591124 0.472451 0.008174
2.598389 0.467183 0.007629
2.605473 0.461916 0.009627
2.612739 0.456648 0.009809
2.619823 0.451380 0.009809
2.627089 0.446113 0.009627
2.634173 0.441027 0.010535
2.641075 0.435941 0.007811
2.648341 0.430492 0.008537
2.655425 0.425406 0.008900
2.662509 0.420320 0.007447
2.669775 0.415052 0.007629
2.676859 0.409784 0.006176
2.683943 0.404698 0.008356
2.691027 0.399431 0.009445
2.698111 0.394163 0.009445
2.705195 0.389077 0.009445
2.712279 0.383810 0.010172
2.719363 0.378724 0.009264
2.726447 0.373456 0.010899
2.733531 0.368370 0.008356
2.740615 0.363284 0.008719
2.747699 0.358016 0.008174
2.754783 0.352930 0.008900
2.761686 0.347845 0.007992
2.768951 0.342577 0.007811
2.775854 0.337491 0.007992
2.782938 0.332405 0.009082
2.790022 0.327319 0.007629
2.796924 0.322051 0.008356
2.804008 0.316965 0.008537
2.811092 0.311879 0.007447
2.818176 0.306793 0.007084
2.825079 0.301526 0.009082
2.831981 0.296621 0.007084
2.839065 0.291354 0.008356
2.845968 0.286450 0.006539
2.853052 0.281182 0.009809
2.860136 0.276096 0.007084
2.867038 0.271010 0.007084
2.874122 0.265742 0.009809
2.881024 0.260838 0.009264
2.888109 0.255752 0.008537
2.895011 0.250666 0.009627
2.901913 0.245580 0.009082
2.908997 0.240312 0.009990
2.915900 0.235408 0.009627
2.922802 0.230322 0.009082
2.929886 0.225236 0.007811
2.936789 0.220150 0.007084
2.943691 0.215064 0.009445
2.950593 0.209978 0.007447
2.957677 0.204892 0.010172
2.964580 0.199806 0.010172
2.971482 0.194720 0.010354
2.978385 0.189634 0.011443
2.985287 0.184730 0.008356
2.992189 0.179644 0.009627
2.999273 0.174558 0.009809
2.994006 0.194357 0.008900
2.987285 0.199261 0.009990
2.980564 0.204166 0.009445
2.974025 0.209070 0.010535
2.967304 0.213974 0.007629
2.960584 0.218697 0.009445
2.953863 0.223601 0.010354
2.947142 0.228687 0.009082
2.940603 0.233410 0.008900
2.933882 0.238314 0.008174
2.927162 0.243400 0.008174
2.920622 0.248123 0.008719
2.913902 0.253027 0.007992
2.907181 0.257932 0.007266
2.900642 0.262654 0.009627
2.893921 0.267740 0.008356
2.887200 0.272645 0.007447
2.880661 0.277367 0.009627
2.873940 0.282272 0.007992
2.867220 0.287176 0.010172
2.860681 0.292080 0.009990
2.853960 0.296803 0.009809
2.847239 0.301889 0.005813
2.840700 0.306612 0.008900
2.833979 0.311516 0.008174
2.827258 0.316420 0.009809
2.820719 0.321325 0.007084
2.813999 0.326229 0.008174
2.807278 0.331133 0.007992
2.800739 0.335856 0.008356
2.794200 0.340760 0.007447
2.787479 0.345665 0.008174
2.780758 0.350569 0.007629
2.774219 0.355473 0.007992
2.767498 0.360378 0.008900
2.760959 0.365101 0.010535
2.754238 0.370005 0.008900
2.747518 0.374909 0.009627
2.740978 0.379814 0.009082
2.734258 0.384718 0.007992
2.727537 0.389622 0.008174
2.720998 0.394345 0.010172
2.714459 0.399249 0.010535
2.707738 0.404154 0.009445
2.701017 0.409058 0.009264
2.694478 0.413962 0.007084
2.687757 0.418867 0.007084
2.681218 0.423589 0.010172
2.674497 0.428494 0.009264
2.667777 0.433398 0.009082
2.661238 0.438302 0.007266
2.654517 0.443207 0.006902
2.647978 0.447929 0.009264
2.641257 0.452834 0.009809
2.634536 0.457738 0.008537
2.627997 0.462642 0.009990
2.621276 0.467547 0.008356
2.614556 0.472451 0.007992
2.608016 0.477355 0.007266
2.601296 0.482078 0.008719
2.594757 0.486982 0.008356
2.588036 0.491887 0.009990
2.581497 0.496609 0.010535
2.574776 0.501695 0.009082
2.568055 0.506600 0.008174
2.561334 0.511322 0.008900
2.554795 0.516227 0.010172
2.534815 0.530940 0.009264
2.528094 0.535662 0.010172
2.521373 0.540748 0.008537
2.514652 0.545653 0.008537
2.508113 0.550557 0.008356
2.501393 0.555461 0.007084
2.494672 0.560366 0.007992
2.488133 0.565088 0.009627
2.481412 0.569993 0.007811
2.474691 0.575079 0.007992
2.468152 0.579801 0.009809
2.461431 0.584706 0.008719
2.454711 0.589610 0.010354
2.447990 0.594514 0.007629
2.441269 0.599419 0.008174
2.434548 0.604505 0.006539
2.428009 0.609227 0.009082
2.421288 0.614132 0.007811
2.401308 0.628845 0.008900
2.394587 0.633749 0.009990
2.387685 0.638835 0.005994
2.367704 0.653548 0.007266
2.360983 0.658452 0.006902
2.354263 0.663357 0.009082
2.347542 0.668261 0.007266
2.341003 0.672984 0.011080
2.327380 0.682974 0.008719
2.320477 0.688060 0.007811
2.313938 0.692783 0.010899
2.307217 0.697869 0.008719
2.300496 0.702773 0.009809
2.293594 0.707677 0.007992
2.286873 0.712763 0.006902
2.280334 0.717486 0.008900
2.273432 0.722572 0.008356
2.266893 0.727476 0.009990
2.259990 0.732562 0.007266
2.246549 0.742189 0.009264
2.239828 0.747275 0.009990
2.219484 0.762170 0.008719
2.212763 0.767074 0.008537
2.206043 0.771979 0.009445
2.199322 0.777065 0.008719
2.172257 0.796864 0.008537
2.165536 0.801768 0.010172
2.158634 0.806854 0.007629
2.151913 0.811758 0.008537
2.145011 0.816844 0.006721
2.138290 0.821749 0.007992
2.131388 0.827016 0.006357
2.124667 0.831921 0.006721
2.117946 0.836825 0.007084
2.111044 0.841911 0.006539
2.104323 0.846815 0.006176
2.097421 0.851901 0.006357
2.090518 0.856987 0.003270
2.077077 0.866796 0.007811
2.070174 0.871882 0.006539
2.063454 0.876968 0.005813
2.056551 0.881872 0.005813
2.049649 0.886958 0.004904
2.042928 0.891862 0.007447
2.036026 0.897130 0.004541
2.029305 0.902034 0.005994
2.022403 0.907120 0.004359
2.015500 0.912206 0.002906
2.008779 0.917111 0.004723
2.001877 0.922197 0.005449
1.994975 0.927101 0.004723
1.988254 0.932187 0.006176
1.981351 0.937273 0.004541
1.974449 0.942177 0.005449
1.967728 0.947082 0.008537
1.960826 0.952168 0.007629
1.954105 0.957254 0.007811
1.947203 0.962158 0.008174
1.940300 0.967244 0.009264
1.933580 0.972330 0.009264
1.927040 0.976871 0.016348
1.920501 0.981412 0.023795
1.914326 0.985771 0.033785
1.907423 0.990676 0.033967
1.900702 0.995762 0.034875
1.893618 1.001029 0.031969
1.886716 1.006115 0.032151
1.879995 1.010838 0.036510
1.873456 1.015561 0.039235
1.866554 1.020647 0.041778
1.860015 1.025369 0.045411
1.853112 1.030455 0.044684
1.846028 1.035723 0.041959
1.838581 1.041354 0.035783
1.831497 1.046621 0.031787
1.824413 1.051889 0.028699
1.817510 1.056975 0.030334
1.810426 1.062243 0.028155
1.803342 1.067510 0.026338
1.797348 1.071688 0.038145
1.790446 1.076592 0.039961
1.783725 1.081497 0.042868
1.777186 1.086038 0.049952
1.770647 1.090942 0.053584
1.763926 1.095665 0.057581
1.757023 1.100751 0.058852
1.750121 1.105837 0.058125
1.743037 1.110923 0.057944
1.736135 1.116190 0.056491
1.729232 1.121095 0.059397
1.722148 1.126362 0.056672
1.714883 1.131812 0.053766
1.707980 1.136898 0.054856
1.700714 1.142347 0.049225
1.693630 1.147614 0.048317
1.687091 1.152337 0.053766
1.680915 1.156515 0.064483
1.674195 1.161419 0.066844
1.667837 1.165779 0.076290
1.661116 1.170683 0.081194
1.654941 1.175042 0.090276
1.648220 1.179765 0.095362
1.641681 1.184488 0.100266
1.634778 1.189574 0.101175
1.628058 1.194296 0.104081
1.621155 1.199382 0.105716
1.614434 1.204287 0.108985
1.607169 1.209554 0.106079
1.600085 1.215004 0.104444
1.593182 1.220090 0.105352
1.586098 1.225176 0.105716
1.579196 1.230262 0.106624
1.572112 1.235348 0.106261
1.565028 1.240615 0.105352
1.557762 1.246064 0.102446
1.550315 1.251695 0.096997
1.542868 1.257326 0.092456
1.535602 1.262775 0.089368
1.528518 1.268043 0.088460
1.521252 1.273492 0.087007
1.514168 1.278578 0.086825
1.506721 1.284209 0.082102
1.499273 1.289840 0.076835
1.491463 1.295834 0.067752
1.484197 1.301284 0.066299
1.470029 1.311637 0.066663
1.462945 1.316905 0.066299
1.456043 1.321809 0.069206
1.449685 1.326350 0.078288
1.443691 1.330528 0.089005
1.437333 1.334887 0.096997
1.430431 1.339973 0.099358
1.423347 1.345059 0.100085
1.416445 1.350145 0.102991
1.409179 1.355413 0.101175
1.402458 1.360499 0.103718
1.395011 1.365948 0.100993
1.388109 1.371034 0.102264
1.381024 1.376120 0.104081
1.373759 1.381751 0.100993
1.366675 1.386655 0.103354
1.359954 1.391560 0.107532
1.352870 1.396827 0.106806
1.345604 1.402277 0.105171
1.338339 1.407726 0.104081
1.331981 1.412085 0.112073
1.325079 1.417171 0.114616
1.317995 1.422257 0.116433
1.310911 1.427525 0.115888
1.303100 1.433519 0.109530
1.296379 1.438242 0.113708
1.288569 1.444054 0.108985
1.281485 1.449504 0.108077
1.274219 1.454771 0.108259
1.266772 1.460402 0.104444
1.259688 1.465488 0.106442
1.253330 1.469847 0.114616
1.246064 1.475297 0.113526
1.238980 1.480383 0.115524
1.231896 1.485650 0.115524
1.224449 1.491281 0.113526
1.217365 1.496549 0.113708
1.209918 1.501998 0.111710
1.202834 1.507266 0.111891
1.195205 1.512897 0.109167
1.187757 1.518527 0.106261
1.180128 1.524158 0.103354
1.172499 1.529971 0.098995
1.164689 1.535783 0.094454
1.156878 1.541778 0.088096
1.149068 1.547590 0.083737
1.141620 1.553039 0.081921
1.133810 1.559034 0.077743
1.126726 1.564301 0.077198
1.119097 1.569932 0.074473
1.111649 1.575381 0.073747
1.104202 1.581012 0.070477
1.095483 1.587733 0.058489
1.087673 1.593546 0.053766
1.079862 1.599540 0.049588
1.072233 1.605352 0.045592
1.064241 1.611347 0.039780
1.056430 1.617159 0.036328
1.049164 1.622427 0.036328
1.041899 1.627876 0.036692
1.034815 1.633144 0.037782
1.027367 1.638593 0.037963
1.020465 1.643497 0.040869
1.012473 1.649673 0.035420
1.004299 1.655849 0.028155
0.996670 1.661480 0.025248
0.989223 1.666929 0.025612
0.981594 1.672742 0.022705
0.974146 1.678191 0.021797
0.966517 1.683822 0.019981
0.958888 1.689453 0.019254
0.908574 1.726144 0.030516
0.901489 1.731412 0.032877
0.893860 1.737043 0.031061
0.886232 1.742855 0.028518
0.904214 1.737588 0.031969
0.919472 1.726689 0.017256
0.928009 1.720513 0.016529
0.962340 1.695265 0.017619
0.971240 1.688544 0.021252
0.979959 1.682187 0.023069
0.988859 1.675648 0.025612
0.997396 1.669290 0.025612
1.006297 1.662751 0.028518
1.015742 1.655486 0.037055
1.025006 1.648583 0.043957
1.033907 1.641862 0.048498
1.041717 1.636595 0.040143
1.049709 1.630782 0.037055
1.058428 1.624243 0.038145
1.067147 1.617704 0.041233
1.076411 1.610802 0.048680
1.085493 1.604081 0.053403
1.094212 1.597542 0.057036
1.103294 1.590821 0.061758
1.112739 1.583374 0.071567
1.121276 1.577198 0.073565
1.129995 1.570840 0.075018
1.138532 1.564301 0.077743
1.147433 1.557762 0.081012
1.156152 1.551223 0.084100
1.165779 1.543776 0.096815
1.174497 1.537237 0.100266
1.183398 1.530698 0.104444
1.192117 1.524158 0.108622
1.200836 1.517801 0.111528
1.209373 1.511443 0.112618
1.217728 1.505268 0.113163
1.226265 1.499092 0.115343
1.234621 1.492734 0.116614
1.242977 1.486740 0.116614
1.251514 1.480383 0.117886
1.259143 1.474933 0.111710
1.267317 1.468939 0.110983
1.276035 1.462400 0.115888
1.284209 1.456406 0.115706
1.292746 1.450048 0.116977
1.300920 1.444236 0.114979
1.308913 1.438423 0.113345
1.317268 1.432066 0.114979
1.325442 1.426253 0.114253
1.333798 1.420078 0.114616
1.341608 1.414447 0.109349
1.349419 1.408816 0.106987
1.357593 1.402822 0.106442
1.366130 1.396464 0.108440
1.374122 1.390651 0.106624
1.382478 1.384476 0.107350
1.390651 1.378481 0.108259
1.399007 1.372306 0.110802
1.407363 1.366130 0.111710
1.414992 1.360681 0.105716
1.422984 1.354868 0.102628
1.431339 1.348692 0.104807
1.438968 1.343243 0.100811
1.446961 1.337430 0.097542
1.454408 1.332344 0.089368
1.461492 1.327258 0.078651
1.468758 1.322172 0.067934
1.476750 1.316542 0.065573
1.484924 1.310547 0.065391
1.493098 1.304372 0.067208
1.501998 1.297651 0.075926
1.510535 1.291293 0.080104
1.518891 1.285117 0.083919
1.527246 1.278942 0.086280
1.535420 1.272766 0.088096
1.543776 1.266590 0.091184
1.552131 1.260414 0.093182
1.560487 1.254238 0.098632
1.569024 1.247699 0.105171
1.577198 1.241705 0.105716
1.585372 1.235711 0.106261
1.593182 1.230080 0.103899
1.601175 1.224086 0.104807
1.609167 1.218273 0.104989
1.617341 1.212279 0.106261
1.625333 1.206466 0.105897
1.633144 1.200654 0.104444
1.641136 1.195023 0.102809
1.648765 1.189392 0.100085
1.656394 1.183943 0.094272
1.663841 1.178857 0.086462
1.671107 1.173771 0.077743
1.678554 1.168322 0.072657
1.686001 1.163054 0.065573
1.693630 1.157605 0.060124
1.700896 1.152519 0.051768
1.708707 1.146888 0.049770
1.717062 1.140530 0.054856
1.724873 1.134718 0.055764
1.733228 1.128542 0.060305
1.741402 1.122548 0.063030
1.749213 1.116735 0.062485
1.756842 1.111286 0.059034
1.764652 1.105655 0.058307
1.772645 1.099661 0.059215
1.780455 1.094030 0.058307
1.788084 1.088581 0.054856
1.795895 1.082768 0.055582
1.802979 1.078046 0.041596
1.809881 1.073141 0.029789
1.818055 1.067147 0.033422
1.825866 1.061334 0.035057
1.833858 1.055522 0.035783
1.841850 1.049528 0.038690
1.850206 1.043170 0.048680
1.858016 1.037358 0.048498
1.865645 1.031908 0.047409
1.873456 1.026278 0.043776
1.880722 1.021192 0.037055
1.888351 1.015561 0.035783
1.896161 1.009930 0.035783
1.903972 1.004117 0.036692
1.911783 0.998486 0.036692
1.919411 0.992855 0.035783
1.927040 0.987225 0.035239
1.934124 0.982320 0.023250
1.941390 0.977416 0.012533
1.948837 0.971967 0.009264
1.956466 0.966336 0.009627
1.964277 0.960705 0.011080
1.972088 0.954892 0.011807
1.979717 0.949261 0.011262
1.987164 0.943812 0.008719
1.994975 0.938181 0.010535
2.002785 0.932369 0.011262
2.010233 0.926919 0.009264
2.017680 0.921652 0.005086
2.025309 0.916202 0.003814
2.033119 0.910390 0.004359
2.040748 0.904759 0.006176
2.048377 0.899310 0.006176
2.056006 0.893679 0.006357
2.063635 0.888048 0.006539
2.071083 0.882599 0.005449
2.078893 0.876968 0.006539
2.086341 0.871337 0.007447
2.094151 0.865706 0.007992
2.101598 0.860257 0.007629
2.109227 0.854626 0.006902
2.116856 0.848995 0.009082
2.124122 0.843727 0.004541
2.131751 0.838096 0.005994
2.139380 0.832647 0.007266
2.161904 0.816118 0.007447
2.169533 0.810487 0.007811
2.184609 0.799407 0.009082
2.192056 0.793957 0.009627
2.199504 0.788690 0.006357
2.206951 0.783059 0.007266
2.214580 0.777428 0.008900
2.221845 0.772342 0.005449
2.229474 0.766529 0.009990
2.236922 0.761080 0.009627
2.244369 0.755813 0.007629
2.251816 0.750363 0.008174
2.259264 0.744914 0.007992
2.266711 0.739465 0.009445
2.273977 0.734016 0.007629
2.281424 0.728566 0.008356
2.288871 0.723299 0.007447
2.296319 0.717668 0.009082
2.303766 0.712218 0.010172
2.311032 0.706951 0.009264
2.318479 0.701320 0.011262
2.325926 0.696052 0.007811
2.333192 0.690785 0.007266
2.347905 0.680068 0.008356
2.355352 0.674619 0.007811
2.362618 0.669351 0.008174
2.369884 0.663902 0.007992
2.406757 0.637200 0.007629
2.414023 0.631933 0.006721
2.421470 0.626302 0.009990
2.428554 0.621216 0.007629
2.436001 0.615767 0.007447
2.443085 0.610499 0.007629
2.450533 0.605231 0.008719
2.457798 0.599782 0.007811
2.465064 0.594514 0.009627
2.479596 0.583979 0.009264
2.486861 0.578530 0.009082
2.493945 0.573262 0.008900
2.508477 0.562727 0.008537
2.515742 0.557459 0.009809
2.523008 0.552192 0.009082
2.530092 0.546924 0.008719
2.537358 0.541657 0.007447
2.544442 0.536389 0.007992
2.551707 0.531303 0.007992
2.566057 0.520586 0.010172
2.573141 0.515500 0.007447
2.580407 0.510233 0.009264
2.587673 0.504965 0.007811
2.594757 0.499697 0.011080
2.601841 0.494430 0.009264
2.609106 0.489162 0.010717
2.616190 0.484076 0.008719
2.623274 0.478808 0.008719
2.630358 0.473722 0.009445
2.637624 0.468455 0.006176
2.644708 0.463187 0.009264
2.651792 0.458101 0.006721
2.659058 0.452834 0.009264
2.665960 0.447748 0.007811
2.673044 0.442480 0.007811
2.680310 0.437212 0.010172
2.687394 0.432126 0.006539
2.694478 0.426859 0.008900
2.701380 0.421773 0.007629
2.708646 0.416505 0.009082
2.715549 0.411419 0.010172
2.722633 0.406152 0.009264
2.729717 0.401066 0.008356
2.736801 0.395980 0.009990
2.743885 0.390712 0.008174
2.750787 0.385626 0.009627
2.758053 0.380540 0.007447
2.764955 0.375272 0.009445
2.772039 0.370368 0.009082
2.779123 0.365101 0.009627
2.786026 0.360015 0.009990
2.793110 0.354929 0.007992
2.800194 0.349661 0.010899
2.807096 0.344575 0.008900
2.814180 0.339489 0.009264
2.821083 0.334403 0.007992
2.828167 0.329317 0.008719
2.835069 0.324231 0.007447
2.842153 0.319145 0.008356
2.849237 0.313877 0.009809
2.856140 0.308791 0.009264
2.863042 0.303705 0.008900
2.870126 0.298620 0.009809
2.877028 0.293534 0.008174
2.884112 0.288448 0.007629
2.891015 0.283362 0.009627
2.897917 0.278276 0.008719
2.905001 0.273190 0.009990
2.911904 0.268285 0.009445
2.918806 0.263018 0.008356
2.925708 0.258113 0.008356
2.932611 0.253027 0.007992
2.939695 0.247941 0.007629
2.946597 0.242855 0.008900
2.953500 0.237769 0.008719
2.960584 0.232683 0.008356
2.967304 0.227597 0.009627
2.974388 0.222512 0.011262
2.981291 0.217607 0.008356
2.988193 0.212521 0.009627
2.995096 0.207435 0.009082
2.997639 0.219242 0.010535
2.990918 0.224146 0.011080
2.984197 0.229051 0.010717
2.977476 0.233955 0.010535
2.970756 0.239041 0.007084
2.964035 0.243764 0.008174
2.957132 0.248850 0.007992
2.950593 0.253754 0.007447
2.943873 0.258658 0.008537
2.936970 0.263563 0.009082
2.930431 0.268467 0.007811
2.923710 0.273371 0.008900
2.916990 0.278276 0.009627
2.910269 0.283180 0.008719
2.903548 0.288084 0.007266
2.896827 0.293170 0.008537
2.890107 0.297893 0.008174
2.883386 0.302979 0.007629
2.876665 0.307883 0.008537
2.870126 0.312606 0.009264
2.863405 0.317692 0.008174
2.856503 0.322596 0.007629
2.849964 0.327319 0.009264
2.843243 0.332405 0.006539
2.836341 0.337309 0.008174
2.829801 0.342214 0.007811
2.823081 0.347118 0.007992
2.816360 0.352022 0.009445
2.809821 0.356745 0.010535
2.802918 0.361831 0.008900
2.796198 0.366735 0.009990
2.789659 0.371640 0.007811
2.782938 0.376544 0.008719
2.776217 0.381448 0.009809
2.769496 0.386353 0.009264
2.762775 0.391257 0.009990
2.756055 0.396161 0.009445
2.749516 0.401066 0.009809
2.742795 0.405970 0.007266
2.736074 0.410874 0.011262
2.729353 0.415597 0.010899
2.722633 0.420683 0.007629
2.715912 0.425769 0.006721
2.709373 0.430492 0.009990
2.702652 0.435396 0.007084
2.695750 0.440300 0.009264
2.689210 0.445205 0.009082
2.682490 0.450109 0.008174
2.675769 0.455013 0.008900
2.669048 0.459918 0.008356
2.662509 0.464822 0.009990
2.655607 0.469908 0.007447
2.649068 0.474631 0.008537
2.642347 0.479535 0.008719
2.635444 0.484621 0.008537
2.628905 0.489525 0.006539
2.622185 0.494248 0.009627
2.615464 0.499152 0.009809
2.608743 0.504057 0.008174
2.602204 0.508961 0.010717
2.595302 0.514047 0.009264
2.588762 0.518951 0.007084
2.582042 0.523856 0.006539
2.575321 0.528760 0.009082
2.568600 0.533664 0.007629
2.561879 0.538569 0.007266
2.555159 0.543655 0.005994
2.548438 0.548377 0.007629
2.541899 0.553282 0.009809
2.534996 0.558186 0.009627
2.528457 0.563090 0.008900
2.521736 0.567995 0.008900
2.514834 0.573081 0.008719
2.508295 0.577803 0.009082
2.501574 0.582708 0.009627
2.494853 0.587794 0.009445
2.488133 0.592698 0.007447
2.481412 0.597421 0.011262
2.474510 0.602688 0.005449
2.467970 0.607411 0.007447
2.461431 0.612134 0.011443
2.454529 0.617220 0.009445
2.447808 0.622124 0.009445
2.441087 0.627210 0.006721
2.434367 0.632114 0.007266
2.420925 0.641923 0.007629
2.414204 0.647009 0.007992
2.407302 0.652095 0.003996
2.393860 0.661722 0.007447
2.387321 0.666626 0.006539
2.380601 0.671531 0.007992
2.373698 0.676617 0.008719
2.367159 0.681339 0.009809
2.360257 0.686425 0.007629
2.353536 0.691330 0.008356
2.346815 0.696234 0.008174
2.340094 0.701320 0.006539
2.333010 0.706406 0.006176
2.326290 0.711310 0.006721
2.319569 0.716215 0.007447
2.312848 0.721119 0.009264
2.306309 0.726023 0.008900
2.299407 0.730928 0.007992
2.292504 0.736014 0.007811
2.285965 0.740918 0.007811
2.279063 0.745822 0.008900
2.272342 0.750908 0.008174
2.265621 0.755631 0.009627
2.258900 0.760717 0.009809
2.252180 0.765621 0.009809
2.245277 0.770707 0.008719
2.238557 0.775612 0.008356
2.231836 0.780698 0.009082
2.224933 0.785602 0.008174
2.218213 0.790688 0.007266
2.211310 0.795592 0.008174
2.204589 0.800496 0.008356
2.197687 0.805764 0.006721
2.190966 0.810668 0.007629
2.184246 0.815573 0.006176
2.177343 0.820659 0.006539
2.170622 0.825563 0.007447
2.163720 0.830649 0.006902
2.150097 0.840639 0.007084
2.136474 0.850630 0.005631
2.129753 0.855716 0.006539
2.122851 0.860802 0.004178
2.116130 0.865524 0.008174
2.109227 0.870610 0.006176
2.102325 0.875878 0.004178
2.088702 0.885687 0.005449
2.081981 0.890773 0.006539
2.075079 0.895859 0.005994
2.068358 0.900581 0.008900
2.061456 0.905849 0.005813
2.054553 0.910935 0.005086
2.047651 0.916021 0.003814
2.040748 0.921107 0.004359
2.034028 0.926011 0.005994
2.027307 0.930734 0.010172
2.020586 0.935638 0.011625
2.013865 0.940543 0.013623
2.007145 0.945447 0.015440
2.000242 0.950533 0.015621
1.993340 0.955619 0.015621
1.986437 0.960705 0.013805
1.979717 0.965609 0.017074
1.972814 0.970695 0.016348
1.965912 0.975599 0.016711
1.958828 0.981049 0.013078
1.952107 0.985953 0.015621
1.945750 0.990312 0.023250
1.939392 0.994853 0.032877
1.932853 0.999395 0.039961
1.925951 1.004481 0.038145
1.919048 1.009566 0.038326
1.911964 1.014652 0.037600
1.905243 1.019738 0.037782
1.898341 1.024824 0.038690
1.891439 1.029910 0.038508
1.884355 1.034996 0.036692
1.878360 1.039174 0.050678
1.871458 1.044078 0.051405
1.864919 1.048801 0.056854
1.857835 1.054069 0.054129
1.850751 1.059336 0.051768
1.843667 1.064604 0.048317
1.836583 1.069872 0.045774
1.829499 1.075321 0.042686
1.822051 1.080770 0.036328
1.816239 1.084766 0.052131
1.810063 1.088944 0.064665
1.803161 1.094030 0.065573
1.796077 1.099298 0.061940
1.788992 1.104565 0.060850
1.781908 1.109833 0.059215
1.775188 1.114737 0.061758
1.768285 1.119823 0.061940
1.761565 1.124728 0.064483
1.754481 1.129814 0.063211
1.747578 1.134899 0.064483
1.740494 1.140167 0.062848
1.733228 1.145616 0.059579
1.725963 1.151066 0.055582
1.719242 1.155970 0.058852
1.713793 1.159421 0.079741
1.706527 1.164689 0.076471
1.699443 1.169956 0.074655
1.692904 1.174679 0.081376
1.686183 1.179583 0.082829
1.679281 1.184669 0.085008
1.673105 1.188847 0.095725
1.666202 1.193933 0.096634
1.659663 1.198656 0.101901
1.652761 1.203560 0.103536
1.645677 1.208828 0.102628
1.638775 1.213914 0.103173
1.631872 1.218818 0.105171
1.624970 1.223904 0.106079
1.617886 1.229353 0.104081
1.610802 1.234439 0.103536
1.603718 1.239707 0.102991
1.596634 1.244975 0.102264
1.589731 1.250061 0.103718
1.582465 1.255328 0.101720
1.575381 1.260596 0.100085
1.568116 1.266045 0.096815
1.560668 1.271676 0.093001
1.553584 1.276762 0.093182
1.546319 1.282393 0.089186
1.538871 1.287842 0.085735
1.531242 1.293655 0.079378
1.523432 1.299649 0.070477
1.516529 1.304735 0.071385
1.509445 1.309821 0.072657
1.502180 1.315270 0.069569
1.494914 1.320719 0.066481
1.487830 1.325805 0.068297
1.481473 1.330528 0.074292
1.475478 1.334524 0.087915
1.469121 1.339065 0.095544
1.462218 1.343969 0.098450
1.455316 1.349055 0.099721
1.448414 1.353960 0.101901
1.441511 1.359046 0.105352
1.434609 1.363950 0.107169
1.428070 1.368673 0.112800
1.421167 1.373759 0.115161
1.414083 1.379026 0.115524
1.406818 1.384294 0.114071
1.399552 1.389743 0.112255
1.392286 1.395193 0.110257
1.385202 1.400279 0.110983
1.377755 1.405909 0.107714
1.370489 1.411359 0.106624
1.363587 1.416445 0.107714
1.356503 1.421531 0.108622
1.349419 1.426617 0.110438
1.342516 1.431703 0.111528
1.335251 1.437152 0.110075
1.327985 1.442419 0.109712
1.320901 1.447687 0.110075
1.313635 1.453136 0.109530
1.307096 1.457859 0.114798
1.300012 1.462945 0.116069
1.293110 1.468031 0.118431
1.285662 1.473480 0.116796
1.278942 1.478203 0.121337
1.271676 1.483652 0.120429
1.264592 1.488920 0.121155
1.257508 1.494187 0.120974
1.250061 1.499637 0.119520
1.242613 1.505086 0.116433
1.235529 1.510354 0.117159
1.227719 1.516166 0.112255
1.220816 1.521434 0.113526
1.213550 1.526701 0.114071
1.206285 1.531969 0.113345
1.198656 1.537782 0.109530
1.190482 1.543957 0.100811
1.182853 1.549770 0.096634
1.175406 1.555401 0.093727
1.167232 1.561577 0.085190
1.159240 1.567571 0.079378
1.151792 1.573020 0.077561
1.144708 1.578288 0.079559
1.137442 1.583737 0.078106
1.129995 1.589186 0.077016
1.122185 1.594999 0.072657
1.114374 1.600993 0.066844
1.106382 1.606987 0.060850
1.098389 1.613163 0.053221
1.090579 1.618976 0.049225
1.083132 1.624425 0.048135
1.075684 1.630056 0.045955
1.067874 1.635868 0.042323
1.060063 1.641681 0.037963
1.052797 1.647130 0.038145
1.045713 1.652216 0.040143
1.038266 1.657847 0.038690
1.030455 1.663659 0.035239
1.022826 1.669472 0.031606
1.014834 1.675285 0.027428
1.007750 1.680552 0.027973
1.000666 1.685820 0.030698
0.993582 1.690906 0.032877
0.985226 1.697263 0.024885
0.977779 1.702894 0.023250
0.970150 1.708525 0.021615
0.962703 1.713974 0.021070
0.954892 1.719969 0.016348
0.940179 1.730685 0.017256
0.932914 1.736135 0.017983
0.925466 1.741402 0.017983
0.960341 1.724328 0.020707
0.969242 1.717970 0.022524
0.977779 1.711613 0.023250
0.987225 1.704529 0.029608
0.996670 1.697263 0.037963
1.005025 1.691087 0.037055
1.012836 1.685638 0.029971
1.021555 1.679462 0.030334
1.030637 1.672560 0.035239
1.039719 1.665839 0.039235
1.048075 1.659663 0.039235
1.056612 1.653306 0.039780
1.065149 1.647130 0.040325
1.074049 1.640591 0.042504
1.082950 1.633870 0.046319
1.091850 1.627331 0.049770
1.100932 1.620247 0.057036
1.110378 1.613163 0.065209
1.119460 1.606261 0.071204
1.128360 1.599721 0.074837
1.137261 1.593001 0.079014
1.146343 1.586280 0.084645
1.154335 1.580467 0.081376
1.163054 1.573928 0.084100
1.172318 1.567026 0.092274
1.181218 1.560305 0.096452
1.189937 1.553766 0.099540
1.199019 1.546864 0.106987
1.208101 1.540143 0.113526
1.216457 1.534149 0.113163
1.224994 1.527791 0.114253
1.233349 1.521615 0.114071
1.242068 1.515076 0.117522
1.250424 1.508900 0.118976
1.258961 1.502543 0.121519
1.267498 1.496367 0.122063
1.275672 1.490373 0.121155
1.283664 1.484560 0.118249
1.292383 1.478021 0.122063
1.300375 1.472209 0.119339
1.308731 1.466033 0.120610
1.316905 1.460220 0.119157
1.324171 1.455134 0.107895
1.332526 1.448959 0.108622
1.340518 1.443146 0.107169
1.348874 1.436970 0.106987
1.357229 1.430976 0.108259
1.365585 1.424619 0.110075
1.374122 1.418443 0.111891
1.382114 1.412449 0.110620
1.390470 1.406273 0.112073
1.398825 1.400097 0.113163
1.406999 1.394284 0.112618
1.415536 1.387927 0.114616
1.423710 1.381933 0.115161
1.431884 1.375938 0.114616
1.439876 1.370126 0.112800
1.447687 1.364495 0.108440
1.454953 1.359409 0.098268
1.463490 1.353052 0.102264
1.471664 1.347057 0.103354
1.479293 1.341608 0.098087
1.486740 1.336341 0.088641
1.493643 1.331618 0.075563
1.501453 1.325987 0.070295
1.509445 1.320174 0.069751
1.517801 1.313999 0.071385
1.525793 1.308186 0.070840
1.533967 1.302192 0.071022
1.542686 1.295653 0.076835
1.551223 1.289114 0.084100
1.559579 1.283119 0.085553
1.567934 1.276944 0.088823
1.576471 1.270586 0.093546
1.584827 1.264229 0.097542
1.593001 1.258053 0.100630
1.601175 1.252059 0.101901
1.609167 1.246246 0.101901
1.617522 1.240070 0.104263
1.625696 1.234076 0.106624
1.633507 1.228264 0.104989
1.641318 1.222633 0.101901
1.649310 1.216820 0.101356
1.657302 1.211008 0.101538
1.665658 1.204832 0.105171
1.673287 1.199382 0.100993
1.680915 1.193752 0.097360
1.688000 1.188847 0.086098
1.695810 1.183216 0.082102
1.703802 1.177404 0.083555
1.711795 1.171410 0.084282
1.719787 1.165597 0.085735
1.727779 1.159784 0.085553
1.734500 1.155243 0.069206
1.742129 1.149794 0.065573
1.750484 1.143618 0.069387
1.758477 1.137624 0.071567
1.766469 1.131812 0.072294
1.774279 1.125999 0.072657
1.781727 1.120731 0.065209
1.789537 1.115101 0.063211
1.797348 1.109470 0.062667
1.805522 1.103112 0.068842
1.813151 1.097663 0.065754
1.821143 1.091850 0.066118
1.828409 1.086764 0.059034
1.835493 1.082042 0.044139
1.843485 1.075866 0.048680
1.851477 1.070053 0.051768
1.859470 1.064059 0.055038
1.867462 1.058247 0.056491
1.875091 1.052616 0.053403
1.882357 1.047530 0.046682
1.889985 1.042080 0.042323
1.897796 1.036450 0.043231
1.905607 1.030637 0.041778
1.913417 1.025006 0.043412
1.920865 1.019557 0.038690
1.928675 1.013744 0.040869
1.936304 1.008295 0.038145
1.944115 1.002482 0.038508
1.951017 0.997941 0.023250
1.958646 0.992310 0.023613
1.966275 0.986861 0.020526
1.973904 0.981230 0.019981
1.981715 0.975599 0.020707
1.989525 0.969787 0.021434
1.996973 0.964338 0.018709
2.004602 0.958888 0.017438
2.012231 0.953439 0.015258
2.019860 0.947808 0.015621
2.027488 0.942177 0.015440
2.034936 0.936910 0.009627
2.042746 0.931097 0.012533
2.050012 0.926011 0.005449
2.057641 0.920380 0.004359
2.065452 0.914568 0.006721
2.072899 0.909118 0.006357
2.080528 0.903488 0.006721
2.088157 0.897857 0.007266
2.095786 0.892407 0.005268
2.111044 0.881146 0.007447
2.118673 0.875696 0.007811
2.126120 0.870247 0.004359
2.133749 0.864798 0.005086
2.156636 0.847905 0.007447
2.164083 0.842456 0.007629
2.171712 0.836825 0.007811
2.179160 0.831376 0.007447
2.186607 0.825926 0.005813
2.201683 0.815028 0.006902
2.209131 0.809397 0.007992
2.216760 0.803948 0.007084
2.224207 0.798498 0.007811
2.231654 0.792868 0.007992
2.239283 0.787418 0.008900
2.246730 0.781969 0.009445
2.269072 0.765621 0.006902
2.276520 0.760172 0.008174
2.283967 0.754723 0.008174
2.291414 0.749273 0.008719
2.298862 0.743824 0.007811
2.306127 0.738557 0.007447
2.313575 0.733107 0.007266
2.320840 0.727658 0.007084
2.328469 0.722209 0.007629
2.335735 0.716760 0.009264
2.343182 0.711492 0.007084
2.350630 0.706043 0.009264
2.357895 0.700775 0.005631
2.365161 0.695326 0.007266
2.372608 0.689876 0.006539
2.380056 0.684427 0.008900
2.387321 0.679160 0.007992
2.394587 0.673710 0.007447
2.401853 0.668443 0.007266
2.409300 0.663175 0.006357
2.416566 0.657726 0.006357
2.446173 0.636292 0.010172
2.453439 0.631024 0.008356
2.460705 0.625575 0.009990
2.467970 0.620308 0.009627
2.482502 0.609772 0.008719
2.489767 0.604505 0.007447
2.497033 0.599055 0.009082
2.504117 0.593969 0.006902
2.511565 0.588520 0.008900
2.518649 0.583253 0.007084
2.525914 0.577985 0.007629
2.532998 0.572717 0.007084
2.540446 0.567450 0.008537
2.547530 0.562182 0.007266
2.554795 0.557096 0.004723
2.561879 0.551829 0.006721
2.569145 0.546379 0.008174
2.576411 0.541112 0.008900
2.597845 0.525490 0.008174
2.605110 0.520223 0.009445
2.612194 0.514774 0.010899
2.619460 0.509688 0.007084
2.626544 0.504602 0.006721
2.633628 0.499152 0.010354
2.640894 0.494066 0.007811
2.647978 0.488799 0.009809
2.655062 0.483531 0.009445
2.662146 0.478445 0.008356
2.669411 0.473178 0.009082
2.676496 0.468092 0.007811
2.683398 0.463006 0.007266
2.690664 0.457738 0.006539
2.697748 0.452470 0.009264
2.704832 0.447384 0.007266
2.711916 0.442117 0.007992
2.719000 0.436849 0.010354
2.726084 0.431763 0.010899
2.733168 0.426677 0.009990
2.740252 0.421410 0.008356
2.747336 0.416324 0.009445
2.754420 0.411056 0.010172
2.761504 0.405970 0.007992
2.768406 0.400884 0.006902
2.775490 0.395798 0.006721
2.782574 0.390712 0.007447
2.789659 0.385444 0.010717
2.796561 0.380358 0.008356
2.803645 0.375272 0.009809
2.810729 0.370005 0.008356
2.817631 0.364919 0.008356
2.824715 0.360015 0.006539
2.831799 0.354747 0.007084
2.838702 0.349661 0.007629
2.845604 0.344575 0.008537
2.852688 0.339307 0.007266
2.859772 0.334221 0.008900
2.866675 0.329135 0.009809
2.873759 0.324049 0.009445
2.880661 0.318963 0.007992
2.887564 0.313877 0.009082
2.894648 0.308791 0.008356
2.901732 0.303705 0.008900
2.908634 0.298620 0.007447
2.915536 0.293534 0.009627
2.922620 0.288448 0.007992
2.929341 0.283362 0.010535
2.936425 0.278276 0.009082
2.943328 0.273190 0.008537
2.950230 0.268104 0.009264
2.957314 0.263018 0.010172
2.964217 0.258113 0.009082
2.971119 0.253027 0.008356
2.978021 0.247941 0.009445
2.984924 0.242855 0.009809
2.992008 0.237769 0.011625
2.994551 0.250484 0.009627
2.987648 0.255570 0.007811
2.980928 0.260475 0.006721
2.974207 0.265379 0.009445
2.967486 0.270283 0.008900
2.960765 0.275188 0.010172
2.954045 0.280092 0.009082
2.947324 0.284996 0.009990
2.940603 0.289901 0.011080
2.933882 0.294987 0.007992
2.927162 0.299891 0.009082
2.920441 0.304795 0.009809
2.913720 0.309700 0.008719
2.906999 0.314604 0.008900
2.900279 0.319508 0.009627
2.893558 0.324413 0.009627
2.886837 0.329317 0.010717
2.880116 0.334403 0.009809
2.873395 0.339307 0.007084
2.866675 0.344212 0.009082
2.859954 0.349116 0.009990
2.853233 0.354020 0.008537
2.846512 0.358925 0.009809
2.839792 0.364011 0.007811
2.833071 0.368915 0.007447
2.826350 0.373819 0.007811
2.819629 0.378724 0.008174
2.812909 0.383628 0.009627
2.806188 0.388532 0.008356
2.792746 0.398341 0.009445
2.786026 0.403427 0.007084
2.779305 0.408150 0.007992
2.772584 0.413054 0.010354
2.765863 0.418140 0.006357
2.759143 0.423044 0.007447
2.752422 0.427949 0.009082
2.745701 0.432853 0.008356
2.739162 0.437757 0.008900
2.732260 0.442662 0.008537
2.725539 0.447566 0.006721
2.719000 0.452470 0.007084
2.712097 0.457556 0.006357
2.705558 0.462279 0.009264
2.698837 0.467183 0.009809
2.692117 0.472088 0.010354
2.685396 0.476992 0.010354
2.678675 0.481896 0.010172
2.671954 0.486982 0.009264
2.665234 0.491705 0.009809
2.658695 0.496609 0.010354
2.651792 0.501695 0.010172
2.645253 0.506418 0.010172
2.638351 0.511504 0.007084
2.631630 0.516408 0.008174
2.625091 0.521313 0.010172
2.618370 0.526399 0.007266
2.604929 0.536207 0.007084
2.598208 0.540930 0.008719
2.591487 0.546016 0.008900
2.584766 0.550920 0.007266
2.578046 0.555643 0.010535
2.571143 0.560911 0.006721
2.564604 0.565633 0.008356
2.557883 0.570538 0.009082
2.551163 0.575624 0.007629
2.544442 0.580346 0.009445
2.537721 0.585432 0.008537
2.524279 0.595241 0.008719
2.517559 0.600145 0.008356
2.510838 0.605050 0.009809
2.504117 0.610136 0.006721
2.497396 0.615040 0.008356
2.490676 0.619944 0.007811
2.483955 0.624849 0.007992
2.477234 0.629753 0.009264
2.470513 0.634657 0.008900
2.463611 0.639743 0.006902
2.450170 0.649734 0.007266
2.443449 0.654638 0.006176
2.436728 0.659542 0.005994
2.430007 0.664628 0.005449
2.423287 0.669351 0.007266
2.416566 0.674437 0.005813
2.403124 0.684246 0.007266
2.396222 0.689150 0.007266
2.389501 0.694236 0.005994
2.382780 0.698959 0.008174
2.376060 0.704045 0.007992
2.369157 0.708949 0.009082
2.362255 0.714035 0.006176
2.355716 0.718939 0.007992
2.348813 0.723844 0.007447
2.342093 0.728748 0.008900
2.335372 0.733834 0.006176
2.328469 0.738920 0.006721
2.321749 0.743824 0.005449
2.315028 0.748729 0.005631
2.308125 0.753814 0.005631
2.301405 0.758719 0.005813
2.294684 0.763623 0.006721
2.287963 0.768527 0.007811
2.281242 0.773613 0.007266
2.274522 0.778518 0.009264
2.267619 0.783604 0.007266
2.260899 0.788326 0.008719
2.254178 0.793412 0.007992
2.247275 0.798498 0.008356
2.240555 0.803403 0.008900
2.233652 0.808489 0.007447
2.226931 0.813393 0.007992
2.220029 0.818661 0.004541
2.213308 0.823383 0.007266
2.206406 0.828469 0.005268
2.199685 0.833374 0.007084
2.192964 0.838460 0.007447
2.186062 0.843546 0.005994
2.179341 0.848268 0.007811
2.172439 0.853354 0.006902
2.165536 0.858622 0.005268
2.158816 0.863526 0.005086
2.151913 0.868612 0.005268
2.145193 0.873517 0.005813
2.131388 0.883507 0.005086
2.124667 0.888411 0.007629
2.104141 0.903669 0.005631
2.097421 0.908574 0.005994
2.090518 0.913659 0.007084
2.083616 0.918745 0.006539
2.076713 0.923831 0.005994
2.069993 0.928736 0.006721
2.063272 0.933458 0.010899
2.056551 0.938544 0.011807
2.049830 0.943267 0.015440
2.043110 0.948171 0.015984
2.036207 0.953257 0.016529
2.029487 0.958162 0.018164
2.022766 0.963066 0.019981
2.015863 0.967970 0.022160
2.009143 0.973056 0.022342
2.002240 0.977961 0.023432
1.995338 0.983228 0.022342
1.988617 0.988133 0.023613
1.981715 0.993037 0.025248
1.974994 0.997941 0.027065
1.968092 1.003027 0.027428
1.961189 1.008113 0.025975
1.954468 1.013018 0.029789
1.947929 1.017559 0.036692
1.941572 1.022281 0.042504
1.934669 1.027186 0.043231
1.927949 1.032090 0.047045
1.921046 1.037176 0.046864
1.913962 1.042444 0.044502
1.907060 1.047530 0.043594
1.899976 1.052797 0.041414
1.893255 1.057702 0.043594
1.886534 1.062424 0.048862
1.880177 1.066965 0.055946
1.873274 1.072051 0.054674
1.866190 1.077319 0.052495
1.859288 1.082405 0.052676
1.852386 1.087491 0.052676
1.845120 1.092759 0.050315
1.838762 1.097300 0.058307
1.832405 1.101659 0.067208
1.825503 1.106927 0.065754
1.818600 1.112013 0.065754
1.811698 1.116917 0.067389
1.804795 1.122185 0.067208
1.797711 1.127271 0.066663
1.790991 1.132175 0.070114
1.784451 1.136716 0.075745
1.777549 1.141802 0.076290
1.771192 1.146343 0.084100
1.763563 1.152155 0.074110
1.757023 1.156878 0.079922
1.750484 1.161601 0.086098
1.743945 1.166142 0.091548
1.736861 1.171410 0.091548
1.729959 1.176496 0.091911
1.722875 1.181581 0.090639
1.716154 1.186486 0.093727
1.709433 1.191572 0.096452
1.702349 1.196658 0.094817
1.695447 1.201744 0.094999
1.688544 1.206830 0.096997
1.681824 1.211552 0.101175
1.674921 1.216638 0.102809
1.667837 1.221906 0.101901
1.661116 1.226810 0.103354
1.654214 1.231896 0.104626
1.647493 1.236619 0.108622
1.640591 1.241705 0.110438
1.633507 1.246973 0.109167
1.626241 1.252422 0.104989
1.618976 1.257690 0.103718
1.611891 1.262957 0.102628
1.604807 1.268406 0.100448
1.597723 1.273492 0.100630
1.590458 1.278942 0.096997
1.583192 1.284391 0.094636
1.575200 1.290567 0.082465
1.567571 1.296379 0.075381
1.560305 1.301829 0.073202
1.545774 1.312545 0.070114
1.538871 1.317631 0.070295
1.531969 1.322717 0.072294
1.524885 1.327985 0.072294
1.518164 1.332708 0.075745
1.511807 1.337249 0.084100
1.505631 1.341426 0.095544
1.499092 1.346149 0.100811
1.492008 1.351417 0.100993
1.484924 1.356684 0.100448
1.477840 1.361770 0.100630
1.470756 1.366856 0.101720
1.463672 1.372124 0.101720
1.457496 1.376302 0.112436
1.450775 1.381388 0.115161
1.443691 1.386655 0.114616
1.436607 1.391741 0.115706
1.429523 1.396827 0.116796
1.422439 1.402277 0.115161
1.415173 1.407544 0.114071
1.408089 1.412812 0.114434
1.401005 1.418079 0.114253
1.393376 1.423710 0.109893
1.386292 1.428978 0.110257
1.379571 1.433701 0.114253
1.372306 1.439150 0.112981
1.364858 1.444781 0.110257
1.357774 1.449867 0.110257
1.350690 1.455134 0.111165
1.343606 1.460402 0.111710
1.335977 1.466033 0.107169
1.329801 1.470392 0.116796
1.323262 1.474933 0.122972
1.316178 1.480383 0.123335
1.308913 1.485650 0.121882
1.301647 1.491100 0.120792
1.294744 1.496004 0.123698
1.287660 1.501090 0.125696
1.280395 1.506721 0.123335
1.272766 1.512352 0.119884
1.265318 1.517983 0.116977
1.258234 1.523069 0.118612
1.250969 1.528518 0.116069
1.243521 1.533967 0.115343
1.236074 1.539598 0.112436
1.228990 1.544684 0.113345
1.222088 1.549770 0.115343
1.214459 1.555401 0.112800
1.207193 1.560850 0.111165
1.199382 1.566663 0.106261
1.192298 1.571930 0.107350
1.184669 1.577561 0.103718
1.176496 1.583919 0.095907
1.168867 1.589731 0.090821
1.160874 1.595725 0.084827
1.152519 1.602083 0.074837
1.145253 1.607532 0.074473
1.138532 1.612255 0.079378
1.131085 1.617886 0.077016
1.123456 1.623517 0.073747
1.115464 1.629511 0.068116
1.106927 1.636232 0.056127
1.098934 1.642226 0.050496
1.091305 1.648038 0.046864
1.083495 1.653851 0.042504
1.076229 1.659300 0.041778
1.068600 1.664931 0.039780
1.060971 1.670562 0.037600
1.053887 1.675829 0.039053
1.046803 1.681097 0.040506
1.039356 1.686365 0.039780
1.031364 1.692359 0.035420
1.023916 1.697990 0.033059
1.016287 1.703621 0.030698
1.009385 1.708707 0.033604
1.002119 1.714156 0.034149
0.995217 1.719060 0.038871
0.987225 1.725054 0.033059
0.978506 1.731594 0.023977
0.970877 1.737225 0.021070
0.982683 1.738496 0.023613
0.991584 1.731775 0.027065
1.000666 1.725054 0.032151
1.009385 1.718515 0.033422
1.018285 1.712158 0.035239
1.026459 1.706164 0.032332
1.035178 1.699806 0.033967
1.044260 1.693085 0.037782
1.052797 1.686728 0.039235
1.061334 1.680552 0.038508
1.069508 1.674558 0.035420
1.078227 1.668201 0.037418
1.087128 1.661480 0.041414
1.096028 1.654759 0.045411
1.104929 1.648038 0.049770
1.114374 1.640954 0.057762
1.123819 1.633870 0.066663
1.133265 1.626605 0.075381
1.141439 1.620792 0.072657
1.149976 1.614434 0.074110
1.158695 1.607895 0.077561
1.167958 1.600993 0.084464
1.177404 1.593727 0.093727
1.186667 1.586643 0.102809
1.195931 1.579741 0.110075
1.204105 1.573747 0.108622
1.212642 1.567389 0.109893
1.221179 1.561032 0.111528
1.230080 1.554493 0.116977
1.238072 1.548680 0.112800
1.246064 1.543049 0.108440
1.254783 1.536328 0.113708
1.263865 1.529608 0.120247
1.272584 1.523069 0.123880
1.281303 1.516529 0.127513
1.289295 1.510717 0.124788
1.297832 1.504541 0.126060
1.306006 1.498547 0.124970
1.314180 1.492553 0.123880
1.322354 1.486558 0.124062
1.330528 1.480564 0.121337
1.338157 1.475115 0.114979
1.345968 1.469484 0.110983
1.354323 1.463490 0.110438
1.362315 1.457677 0.108440
1.370671 1.451502 0.109530
1.379390 1.444962 0.113526
1.387927 1.438605 0.116796
1.396101 1.432611 0.115888
1.403730 1.427162 0.110075
1.412267 1.420986 0.112436
1.420441 1.414810 0.112618
1.428796 1.408816 0.113890
1.437152 1.402640 0.115524
1.445507 1.396464 0.116433
1.453136 1.390833 0.112436
1.461492 1.384839 0.112800
1.469121 1.379390 0.105716
1.477113 1.373577 0.103354
1.485105 1.367765 0.102809
1.493461 1.361589 0.105352
1.501635 1.355595 0.103718
1.509445 1.349964 0.100266
1.516893 1.344696 0.092456
1.524158 1.339610 0.082829
1.531606 1.334342 0.075381
1.539961 1.328348 0.076108
1.547772 1.322536 0.073565
1.555764 1.316723 0.072294
1.563938 1.310911 0.071385
1.572294 1.304553 0.075200
1.580286 1.298741 0.073928
1.589731 1.291475 0.089186
1.598087 1.285117 0.094091
1.606624 1.278760 0.098995
1.614798 1.272766 0.100448
1.623153 1.266590 0.103536
1.631509 1.260414 0.107169
1.639683 1.254238 0.110802
1.647857 1.248244 0.110983
1.655667 1.242432 0.110257
1.663478 1.236982 0.105716
1.670925 1.231715 0.099177
