1757
-1.014774 3.800860 0.386292
-0.984500 3.778457 0.398402
-0.954226 3.755449 0.410511
-0.925163 3.734258 0.408695
-0.896101 3.713066 0.412327
-0.865827 3.690058 0.425042
-0.836764 3.668867 0.423831
-0.808307 3.647675 0.425042
-0.777428 3.624667 0.438968
-0.747154 3.602264 0.452894
-0.718092 3.581073 0.453500
-0.687212 3.557459 0.468636
-0.658150 3.536268 0.471058
-0.629692 3.515076 0.471058
-0.601235 3.494490 0.469847
-0.571567 3.472088 0.477113
-0.540082 3.448474 0.501332
-0.510414 3.426072 0.510414
-0.480746 3.404275 0.514652
-0.452894 3.384294 0.509203
-0.422620 3.361286 0.523735
-0.394163 3.340094 0.526156
-0.366917 3.320719 0.514047
-0.340276 3.301344 0.498305
-0.312424 3.280758 0.494672
-0.285178 3.261383 0.483168
-0.256721 3.240191 0.484379
-0.228264 3.219605 0.483773
-0.199806 3.198414 0.483168
-0.170744 3.177222 0.486195
-0.142892 3.157241 0.478930
-0.116251 3.137261 0.468636
-0.089005 3.117280 0.461371
-0.060547 3.097300 0.456527
-0.033907 3.077319 0.445628
-0.010899 3.062182 0.397191
0.016348 3.042202 0.389319
0.046016 3.020404 0.398402
0.074473 2.999213 0.400218
0.101720 2.979232 0.391741
0.130177 2.958646 0.392952
0.156212 2.939876 0.372366
0.185275 2.918685 0.371155
0.213127 2.898704 0.368128
0.240978 2.878118 0.366917
0.269436 2.856927 0.369944
0.298498 2.835735 0.374183
0.326956 2.814543 0.375999
0.355413 2.793352 0.377815
0.383870 2.772766 0.379026
0.412933 2.751574 0.385687
0.441390 2.730383 0.389319
0.468031 2.711008 0.379026
0.495883 2.690421 0.372972
0.522524 2.671046 0.361468
0.549164 2.652277 0.346331
0.575200 2.633507 0.329378
0.601841 2.614132 0.315452
0.628481 2.595362 0.301526
0.655122 2.575381 0.290022
0.684185 2.554190 0.299104
0.713853 2.532393 0.311819
0.739889 2.513623 0.294260
0.767135 2.493643 0.284573
0.793776 2.474267 0.277307
0.822233 2.453076 0.281545
0.850085 2.432490 0.281545
0.877937 2.412509 0.280334
0.906394 2.391318 0.280940
0.933640 2.371337 0.282756
0.962097 2.350145 0.282756
0.988738 2.330770 0.274279
1.016590 2.310790 0.271858
1.044442 2.290203 0.273674
1.075321 2.266590 0.304553
1.101962 2.247215 0.294866
1.127392 2.229051 0.270647
1.155849 2.207859 0.279123
1.183095 2.188484 0.274279
1.210947 2.167898 0.276701
1.238799 2.147312 0.280940
1.266651 2.126726 0.277912
1.294502 2.106140 0.280940
1.321749 2.086159 0.282756
1.350206 2.064967 0.288811
1.377452 2.044987 0.288811
1.406515 2.023190 0.304553
1.434972 2.002604 0.311819
1.461613 1.982623 0.308791
1.487648 1.963853 0.292444
1.516711 1.942056 0.311213
1.542746 1.923892 0.296682
1.570598 1.903306 0.299709
1.598450 1.882720 0.303342
1.625696 1.862739 0.306370
1.653548 1.842153 0.309397
1.680794 1.822172 0.313030
1.707435 1.802192 0.303948
1.736498 1.781000 0.325139
1.766772 1.757387 0.360862
1.796440 1.734984 0.391741
1.824897 1.713187 0.411722
1.852143 1.693812 0.408695
1.879995 1.673226 0.417171
1.907847 1.652034 0.434124
1.936910 1.629632 0.459554
1.964156 1.609651 0.465004
1.992008 1.589065 0.471664
2.019254 1.569085 0.474691
2.045895 1.549709 0.475902
2.073141 1.529729 0.476508
2.099177 1.510354 0.475902
2.126423 1.490373 0.477113
2.152458 1.471603 0.468031
2.179705 1.451623 0.471058
2.205740 1.432853 0.461976
2.231775 1.414083 0.455316
2.257811 1.394708 0.446839
2.283240 1.376544 0.432308
2.309881 1.357169 0.430492
2.335917 1.338399 0.422620
2.361952 1.319024 0.420804
2.389198 1.299043 0.426253
2.415839 1.279668 0.425648
2.441875 1.260293 0.425042
2.468515 1.240918 0.426253
2.495156 1.221543 0.426859
2.521797 1.202168 0.424437
2.546621 1.184003 0.407484
2.571446 1.166445 0.383265
2.590216 1.155546 0.276096
2.616251 1.136776 0.272463
2.643497 1.116190 0.283967
2.670744 1.096210 0.299709
2.699201 1.074413 0.332405
2.726447 1.053827 0.344514
2.754299 1.033240 0.362679
2.779123 1.015076 0.350569
2.806370 0.995096 0.361468
2.833010 0.975115 0.371761
2.859046 0.956345 0.365706
2.884476 0.937576 0.363284
2.910511 0.918201 0.364495
2.937152 0.898220 0.374183
2.963187 0.879450 0.371761
2.989223 0.861286 0.364495
3.012836 0.843727 0.340276
3.038871 0.824958 0.339671
3.118794 0.826169 0.319690
3.096391 0.842516 0.322717
3.073989 0.858864 0.332405
3.050981 0.875817 0.335432
3.028578 0.892165 0.338460
3.006176 0.908513 0.343909
2.983168 0.924861 0.349358
2.961371 0.940603 0.364495
2.938363 0.958162 0.359651
2.915355 0.975115 0.359046
2.892347 0.992068 0.359046
2.868733 1.009022 0.356018
2.845725 1.026580 0.346331
2.822112 1.044139 0.337249
2.799104 1.060487 0.348147
2.775490 1.078046 0.336643
2.752482 1.095604 0.329983
2.727053 1.114979 0.300920
2.703439 1.132538 0.291233
2.678009 1.152519 0.254904
2.654396 1.170078 0.251271
2.630782 1.187031 0.244006
2.607774 1.203984 0.248244
2.586583 1.219121 0.272463
2.572051 1.226387 0.393558
2.549649 1.242734 0.401429
2.527246 1.259082 0.408695
2.503633 1.276641 0.403851
2.480625 1.293594 0.408695
2.457617 1.310547 0.409300
2.435214 1.326895 0.414749
2.412206 1.343848 0.416566
2.388593 1.360802 0.415960
2.364979 1.378360 0.407484
2.342577 1.395314 0.414144
2.318358 1.412872 0.407484
2.296561 1.428615 0.425042
2.274764 1.444357 0.438363
2.251150 1.461916 0.436546
2.228142 1.478264 0.443207
2.206345 1.494006 0.457132
2.183337 1.510959 0.463793
2.160329 1.527912 0.465004
2.137321 1.544866 0.468636
2.114313 1.561213 0.471058
2.091305 1.578167 0.473480
2.067692 1.595725 0.472875
2.044684 1.612679 0.472269
2.020465 1.630843 0.464398
1.996246 1.649007 0.451683
1.972633 1.666566 0.445628
1.947808 1.685335 0.430492
1.924800 1.701683 0.437757
1.901792 1.718636 0.440179
1.877573 1.736801 0.432308
1.854565 1.753754 0.435335
1.830346 1.771918 0.428675
1.806733 1.788871 0.425648
1.780698 1.809457 0.391741
1.755268 1.828227 0.376605
1.731654 1.845786 0.374183
1.708646 1.862739 0.375394
1.683822 1.881509 0.365101
1.659603 1.899673 0.352991
1.634778 1.917837 0.343303
1.610559 1.936607 0.331194
1.585130 1.955377 0.316057
1.560911 1.973541 0.308186
1.489465 2.026217 0.299104
1.467062 2.042565 0.314241
1.442238 2.060729 0.304553
1.418624 2.078288 0.301526
1.394405 2.095846 0.300920
1.370792 2.114011 0.296682
1.347178 2.131569 0.297893
1.321749 2.150339 0.282756
1.298135 2.167898 0.282151
1.275127 2.184246 0.293655
1.251514 2.201804 0.295471
1.226689 2.219969 0.285178
1.203076 2.238133 0.282756
1.178857 2.255691 0.279123
1.153427 2.275067 0.262170
1.129208 2.292625 0.260354
1.106200 2.309579 0.271252
1.081376 2.327743 0.260959
1.032938 2.364071 0.253088
1.009324 2.381024 0.256115
0.985105 2.399189 0.255510
0.962703 2.414931 0.269436
0.939695 2.432490 0.274885
0.915476 2.450048 0.271858
0.891257 2.467607 0.273069
0.867038 2.485771 0.272463
0.843425 2.503330 0.272463
0.819811 2.520889 0.275490
0.796198 2.537842 0.280940
0.771979 2.555401 0.282151
0.748365 2.572960 0.281545
0.724146 2.591124 0.277307
0.699927 2.608682 0.280334
0.676314 2.626241 0.284573
0.652700 2.643800 0.284573
0.629087 2.660753 0.293049
0.605473 2.677706 0.298498
0.583676 2.693449 0.319085
0.560063 2.710402 0.325139
0.537660 2.727355 0.337249
0.514652 2.743098 0.351175
0.492855 2.759445 0.367522
0.469242 2.776399 0.374183
0.446234 2.793352 0.383265
0.421410 2.812122 0.375999
0.397191 2.829680 0.376605
0.372366 2.848450 0.372366
0.348147 2.866009 0.370550
0.323323 2.884173 0.367522
0.299104 2.901732 0.369944
0.275490 2.919290 0.369944
0.250666 2.938060 0.365101
0.225236 2.956830 0.356018
0.201017 2.974994 0.356018
0.176798 2.992553 0.357835
0.153790 3.009506 0.364495
0.129571 3.027670 0.366917
0.105352 3.044623 0.370550
0.082950 3.061577 0.382659
0.057520 3.079741 0.376605
0.032696 3.098511 0.371155
0.009082 3.116069 0.377210
-0.009082 3.128179 0.426253
-0.035117 3.147554 0.412933
-0.055098 3.161480 0.447445
-0.081133 3.180855 0.437152
-0.105352 3.198414 0.438968
-0.130782 3.217183 0.434730
-0.154396 3.234137 0.441996
-0.176798 3.251090 0.453500
-0.201623 3.268649 0.455922
-0.227053 3.288024 0.446234
-0.250061 3.304977 0.454105
-0.272463 3.320719 0.470453
-0.296077 3.338278 0.479535
-0.319085 3.354626 0.490434
-0.343303 3.372790 0.490434
-0.368128 3.390954 0.490434
-0.393558 3.409724 0.481351
-0.417171 3.427283 0.486195
-0.441390 3.444841 0.488617
-0.466215 3.463611 0.488012
-0.489223 3.479959 0.500121
-0.514652 3.499334 0.489828
-0.540082 3.518104 0.483168
-0.564907 3.536268 0.482562
-0.589731 3.554432 0.481351
-0.616372 3.574413 0.464398
-0.640591 3.592577 0.469242
-0.661177 3.607108 0.494066
-0.687212 3.626483 0.486195
-0.713248 3.646464 0.474086
-0.738678 3.664628 0.469847
-0.766529 3.686425 0.444418
-0.793170 3.706406 0.426253
-0.819811 3.726387 0.413538
-0.846452 3.746367 0.398402
-0.871276 3.764531 0.399612
-0.896706 3.783907 0.391136
-0.921531 3.802071 0.391741
-0.947566 3.821446 0.383265
-0.972390 3.840216 0.380843
-0.997820 3.858380 0.379026
-1.024461 3.878966 0.359651
-1.052313 3.900157 0.338460
-1.078954 3.920138 0.327561
-1.103778 3.938908 0.325139
-1.129208 3.957072 0.322717
-1.155243 3.977053 0.312424
-1.180673 3.995217 0.310002
-1.206103 4.014592 0.303948
-1.232139 4.033967 0.296077
-1.269678 4.064241 0.202834
-1.294502 4.082405 0.208888
-1.319932 4.101780 0.200412
-1.344151 4.118733 0.208888
-1.368976 4.137503 0.206466
-1.395616 4.157484 0.197384
-1.421652 4.176859 0.188302
-1.447082 4.195628 0.185880
-1.473722 4.215609 0.174376
-1.500969 4.236195 0.159240
-1.527004 4.255570 0.151368
-1.557883 4.279184 0.110196
-1.580891 4.296137 0.124122
-1.607532 4.316118 0.113224
-1.637806 4.339126 0.076895
-1.666263 4.360923 0.055098
-1.695326 4.383325 0.027852
-1.719545 4.400884 0.032696
-1.744369 4.419654 0.032090
-1.769194 4.437818 0.035723
-1.794623 4.456588 0.031485
-1.820659 4.475963 0.026641
-1.846089 4.494732 0.024824
-1.869702 4.512291 0.033907
-1.895132 4.530455 0.033301
-1.919956 4.549225 0.030879
-1.941148 4.591608 0.026641
-1.912085 4.569811 0.029668
-1.882417 4.548014 0.032090
-1.854565 4.528033 0.025430
-1.825503 4.506842 0.024824
-1.797045 4.485045 0.025430
-1.766772 4.462642 0.032696
-1.737709 4.441451 0.033301
-1.708646 4.420259 0.033301
-1.679583 4.399068 0.033301
-1.650521 4.377271 0.033907
-1.616009 4.350630 0.071446
-1.584524 4.327016 0.091426
-1.553645 4.304008 0.101720
-1.522160 4.280395 0.119884
-1.491281 4.257387 0.131993
-1.459797 4.233773 0.148946
-1.430128 4.211371 0.156212
-1.397433 4.187152 0.179826
-1.367159 4.164144 0.192541
-1.338702 4.143558 0.188302
-1.309034 4.121155 0.195568
-1.279365 4.099964 0.197990
-1.252119 4.079983 0.188302
-1.209131 4.045471 0.290022
-1.178857 4.023069 0.300315
-1.149189 4.001271 0.303948
-1.120126 3.979474 0.309397
-1.089852 3.957072 0.318479
-1.059579 3.934669 0.327561
-1.030516 3.912872 0.333616
-0.998426 3.888653 0.354807
-0.967547 3.865040 0.374788
-0.938484 3.844454 0.371761
-0.908816 3.822051 0.379632
-0.879753 3.800860 0.382659
-0.850085 3.778457 0.392347
-0.820417 3.756660 0.400218
-0.787116 3.731230 0.431097
-0.756236 3.707617 0.452894
-0.724146 3.684003 0.475297
-0.695689 3.662812 0.474691
-0.666021 3.641015 0.481957
-0.638169 3.620429 0.480140
-0.610923 3.600448 0.471058
-0.581255 3.578651 0.474691
-0.551586 3.556854 0.482562
-0.523735 3.536268 0.478324
-0.494672 3.515076 0.483168
-0.465609 3.493279 0.491039
-0.437757 3.472693 0.484379
-0.410511 3.452713 0.475297
-0.382054 3.432126 0.474086
-0.354202 3.412146 0.467426
-0.326956 3.392165 0.458949
-0.298498 3.370974 0.459554
-0.269436 3.349782 0.466820
-0.243400 3.331012 0.446839
-0.216154 3.311032 0.434730
-0.188302 3.290446 0.434730
-0.161056 3.271070 0.425648
-0.132599 3.249879 0.428070
-0.104141 3.228687 0.426859
-0.076895 3.209312 0.417777
-0.049649 3.189332 0.408695
-0.022403 3.169351 0.400823
0.004238 3.150581 0.383870
0.030274 3.131812 0.364495
0.058731 3.110620 0.371761
0.088399 3.088217 0.381448
0.115040 3.069448 0.363284
0.142286 3.049467 0.357229
0.170138 3.029487 0.352386
0.197990 3.008900 0.352386
0.227053 2.987709 0.358440
0.255510 2.966517 0.362073
0.285178 2.944720 0.368128
0.312424 2.924740 0.362073
0.340882 2.904154 0.366917
0.369339 2.882962 0.366311
0.397191 2.862376 0.370550
0.426253 2.841184 0.373577
0.453500 2.820598 0.370550
0.481351 2.800618 0.366311
0.507387 2.781848 0.351780
0.533422 2.763078 0.333010
0.560063 2.744309 0.318479
0.586704 2.724933 0.306370
0.613345 2.705558 0.294866
0.639985 2.686183 0.286994
0.667232 2.666202 0.280940
0.695084 2.645616 0.279123
0.722935 2.625636 0.274279
0.751393 2.604444 0.282756
0.778033 2.585069 0.269436
0.805885 2.565088 0.270041
0.833132 2.544502 0.267619
0.860983 2.523916 0.268830
0.888835 2.503936 0.267014
0.916687 2.483349 0.268225
0.944539 2.463369 0.267619
0.971785 2.442783 0.265803
0.998426 2.423408 0.257326
1.028094 2.401611 0.271252
1.054129 2.382841 0.258537
1.083798 2.360438 0.276701
1.110438 2.341063 0.268830
1.137079 2.321688 0.259748
1.165536 2.300496 0.269436
1.193388 2.279910 0.272463
1.222451 2.258719 0.288205
1.249697 2.238133 0.290022
1.277549 2.218152 0.290627
1.304795 2.198171 0.288205
1.332042 2.177585 0.288811
1.359893 2.156999 0.293655
1.387745 2.136413 0.300920
1.414386 2.117038 0.294260
1.441632 2.097663 0.290022
1.469484 2.077077 0.294260
1.578469 1.996549 0.296077
1.606321 1.975963 0.302737
1.635989 1.953560 0.330589
1.665052 1.931763 0.353597
1.693509 1.910572 0.368733
1.721967 1.889380 0.383265
1.748607 1.869399 0.383870
1.775854 1.849419 0.385081
1.803100 1.829438 0.392347
1.834585 1.805219 0.440785
1.861831 1.785239 0.443812
1.889077 1.764652 0.448656
1.916929 1.744066 0.463187
1.942964 1.724691 0.456527
1.968394 1.707132 0.437757
1.995641 1.686546 0.445628
2.022887 1.666566 0.452289
2.048922 1.647796 0.440179
2.075563 1.628421 0.440785
2.102204 1.608440 0.444418
2.128845 1.589065 0.440785
2.156697 1.568479 0.451078
2.183337 1.549104 0.452894
2.209373 1.529729 0.451683
2.235408 1.510959 0.448050
2.261443 1.492189 0.434730
2.287479 1.472814 0.431097
2.312909 1.454650 0.419593
2.337733 1.437091 0.399007
2.363163 1.418927 0.386898
2.391015 1.397736 0.405667
2.416445 1.378966 0.395374
2.442480 1.360196 0.389319
2.469121 1.340821 0.391741
2.495156 1.322051 0.386898
2.520586 1.303282 0.378421
2.546621 1.284512 0.376605
2.566602 1.272403 0.290022
2.592032 1.253633 0.279729
2.617462 1.236074 0.260959
2.642286 1.217910 0.248244
2.668927 1.197929 0.253693
2.694357 1.179765 0.244006
2.721603 1.159179 0.264592
2.750666 1.136776 0.300315
2.777912 1.116796 0.317874
2.804553 1.096815 0.331194
2.830589 1.077440 0.333616
2.856018 1.058670 0.325139
2.882659 1.039295 0.330589
2.908695 1.019920 0.337249
2.935941 0.999334 0.363890
2.961371 0.980564 0.357229
2.986195 0.963006 0.338460
3.011625 0.944841 0.335432
3.037055 0.926072 0.329983
3.063090 0.907302 0.331799
3.088520 0.888532 0.330589
3.113345 0.870974 0.315452
3.138775 0.852204 0.311819
3.163599 0.834645 0.299709
3.189029 0.815876 0.296682
3.265318 0.826774 0.288811
3.242310 0.843727 0.283362
3.220513 0.859470 0.300920
3.197505 0.875817 0.306370
3.175708 0.892165 0.314241
3.152700 0.908513 0.323323
3.129692 0.925466 0.322112
3.107290 0.942419 0.325745
3.084282 0.958767 0.329378
3.061274 0.976326 0.325139
3.038266 0.992674 0.326956
3.014047 1.010838 0.308791
2.991039 1.027791 0.312424
2.968031 1.044744 0.316057
2.945628 1.061698 0.316057
2.921410 1.079256 0.306370
2.899007 1.095604 0.315452
2.875999 1.111952 0.319690
2.852386 1.129511 0.313030
2.829378 1.147070 0.310002
2.803948 1.166445 0.280940
2.779123 1.185820 0.251271
2.708283 1.237891 0.236740
2.686486 1.254238 0.250061
2.662267 1.271797 0.245822
2.639259 1.288145 0.247033
2.616856 1.304493 0.257326
2.596270 1.319024 0.291233
2.573868 1.335372 0.300920
2.550254 1.352325 0.301526
2.526641 1.369884 0.298498
2.504238 1.386232 0.308186
2.483652 1.400763 0.340276
2.461250 1.417111 0.351780
2.437636 1.434064 0.351175
2.414023 1.452228 0.343303
2.390409 1.469787 0.339671
2.370429 1.483107 0.386292
2.347421 1.499455 0.392347
2.325018 1.515803 0.401429
2.302010 1.532756 0.408089
2.279002 1.549709 0.411116
2.255389 1.566663 0.410511
2.232381 1.584221 0.411722
2.207556 1.602386 0.398402
2.183943 1.619944 0.397191
2.160935 1.636292 0.400823
2.137321 1.653851 0.400218
2.114313 1.670804 0.404456
2.091911 1.687152 0.415355
2.069508 1.703500 0.426859
2.048317 1.718636 0.451078
2.023492 1.736801 0.437757
2.001090 1.753148 0.454711
1.978687 1.769496 0.460160
1.954468 1.787055 0.458343
1.930249 1.805219 0.449261
1.906636 1.822778 0.443207
1.883023 1.840337 0.441996
1.857593 1.859712 0.420199
1.833374 1.877876 0.412933
1.809155 1.895435 0.408695
1.784330 1.914204 0.394163
1.759506 1.932974 0.379632
1.734076 1.952349 0.358440
1.709252 1.971119 0.345120
1.683216 1.990494 0.323323
1.656575 2.011080 0.290627
1.632962 2.028639 0.287600
1.467668 2.149734 0.302131
1.445265 2.166687 0.313030
1.421046 2.183640 0.314846
1.396827 2.202410 0.305159
1.372608 2.219969 0.302131
1.348389 2.238133 0.302737
1.322960 2.256902 0.283362
1.298741 2.275067 0.280334
1.274522 2.293231 0.273674
1.250908 2.310184 0.280940
1.226689 2.328348 0.275490
1.202470 2.346512 0.273069
1.177646 2.364677 0.266408
1.154638 2.381630 0.270041
1.130419 2.399189 0.273069
1.106806 2.416747 0.274885
1.082587 2.434912 0.271858
1.059579 2.451865 0.280940
1.035965 2.468818 0.282756
1.009324 2.488799 0.262775
0.984500 2.507568 0.255510
0.960886 2.525127 0.256115
0.937273 2.542080 0.261565
0.913659 2.559639 0.263381
0.888835 2.577803 0.260959
0.865222 2.595362 0.263986
0.841003 2.612921 0.263986
0.817389 2.630480 0.265803
0.793170 2.648038 0.267014
0.768951 2.666202 0.266408
0.745338 2.683156 0.272463
0.722330 2.700109 0.280940
0.697505 2.718273 0.279123
0.673892 2.735832 0.280334
0.650279 2.752785 0.289416
0.626665 2.770344 0.292444
0.602446 2.787903 0.296682
0.580649 2.803645 0.316057
0.555825 2.822415 0.308791
0.533422 2.838157 0.325139
0.509203 2.855716 0.329983
0.486801 2.872063 0.343909
0.464398 2.888411 0.359651
0.440785 2.905364 0.367522
0.416566 2.923529 0.366311
0.392347 2.941087 0.367522
0.367522 2.959857 0.363284
0.343303 2.977416 0.362073
0.318479 2.996186 0.357229
0.294260 3.013744 0.357835
0.269436 3.032514 0.355413
0.245217 3.050073 0.357835
0.220392 3.068237 0.354202
0.195568 3.087007 0.349358
0.170744 3.105171 0.344514
0.146525 3.122729 0.348753
0.123517 3.140288 0.356018
0.098692 3.158452 0.357229
0.073868 3.176617 0.351780
0.049043 3.195386 0.347542
0.024824 3.212945 0.348753
0.000605 3.230504 0.354807
-0.023008 3.247457 0.363284
-0.046621 3.264410 0.371761
-0.070840 3.282574 0.372366
-0.094454 3.299528 0.382659
-0.118067 3.317086 0.387503
-0.141075 3.334040 0.398402
-0.167111 3.352809 0.392347
-0.191330 3.370974 0.390530
-0.213732 3.386716 0.409906
-0.236740 3.403669 0.422015
-0.260354 3.420622 0.429886
-0.283362 3.437576 0.440179
-0.308791 3.456345 0.434124
-0.331194 3.472693 0.452894
-0.356018 3.490857 0.450472
-0.378421 3.507205 0.465004
-0.402034 3.524764 0.472875
-0.425648 3.541717 0.481351
-0.451683 3.561092 0.469847
-0.477719 3.581073 0.458343
-0.503754 3.599843 0.452894
-0.529184 3.618612 0.445023
-0.554008 3.637382 0.440785
-0.578833 3.656152 0.439574
-0.603657 3.673710 0.441390
-0.627271 3.691269 0.451078
-0.650884 3.708828 0.454711
-0.675708 3.726992 0.455922
-0.701138 3.745762 0.451078
-0.735045 3.773008 0.382054
-0.755025 3.786328 0.417777
-0.782272 3.807520 0.399612
-0.808913 3.826895 0.386898
-0.837975 3.849298 0.354807
-0.864616 3.869278 0.341487
-0.891257 3.889259 0.328167
-0.916081 3.908029 0.327561
-0.940906 3.926193 0.326956
-0.965730 3.944962 0.327561
-0.989344 3.961310 0.340276
-1.015984 3.981896 0.325139
-1.042625 4.001271 0.314241
-1.069266 4.021252 0.302737
-1.093485 4.039416 0.303342
-1.119520 4.058791 0.297893
-1.144950 4.077561 0.296077
-1.172802 4.098753 0.273674
-1.204892 4.123577 0.224631
-1.237588 4.149612 0.168927
-1.261807 4.167171 0.176193
-1.286026 4.185335 0.179220
-1.311456 4.204105 0.174982
-1.340518 4.226508 0.147130
-1.367159 4.245883 0.141075
-1.395616 4.267680 0.116856
-1.422257 4.287660 0.102930
-1.447082 4.305825 0.105958
-1.473117 4.325200 0.100509
-1.503391 4.348813 0.064180
-1.533059 4.371216 0.033907
-1.557883 4.389985 0.035117
-1.584524 4.409361 0.027852
-1.608743 4.427525 0.032090
-1.633567 4.445689 0.034512
-1.659603 4.465064 0.031485
-1.685033 4.483834 0.027852
-1.709857 4.502604 0.027852
-1.735287 4.521373 0.027852
-1.760717 4.539537 0.026641
-1.785541 4.558307 0.027852
-1.810971 4.577077 0.026035
-1.835796 4.595241 0.029668
-1.818237 4.607956 0.026641
-1.789174 4.586159 0.027852
-1.759506 4.564967 0.028457
-1.731049 4.543776 0.025430
-1.701986 4.522584 0.028457
-1.672923 4.500787 0.028457
-1.644466 4.479596 0.027852
-1.614798 4.457798 0.032090
-1.585130 4.436001 0.032696
-1.557278 4.416021 0.026641
-1.527004 4.393013 0.037539
-1.498547 4.372427 0.033301
-1.465851 4.347602 0.059336
-1.431945 4.321567 0.092032
-1.401671 4.299164 0.099298
-1.371397 4.276762 0.107774
-1.339307 4.252543 0.133810
-1.306612 4.227719 0.156818
-1.275733 4.204105 0.174376
-1.247881 4.184124 0.165294
-1.220029 4.164144 0.155001
-1.183095 4.135081 0.216154
-1.146161 4.106624 0.272463
-1.115282 4.083616 0.285178
-1.086219 4.061819 0.287600
-1.055946 4.039416 0.299709
-1.027488 4.018225 0.296682
-0.996609 3.995217 0.312424
-0.964519 3.971603 0.333616
-0.937273 3.951017 0.325745
-0.908816 3.930431 0.324534
-0.880358 3.909845 0.319085
-0.850085 3.886837 0.330589
-0.817995 3.862618 0.357229
-0.786510 3.839005 0.375394
-0.758658 3.819024 0.370550
-0.729596 3.797227 0.372366
-0.704166 3.779063 0.346936
-0.661783 3.745156 0.451078
-0.635142 3.725781 0.436546
-0.604868 3.703379 0.448050
-0.577016 3.683398 0.441996
-0.549164 3.662812 0.437152
-0.520102 3.641620 0.438968
-0.491039 3.619823 0.443207
-0.460765 3.597421 0.454105
-0.431703 3.575624 0.462582
-0.402640 3.554432 0.464398
-0.374788 3.533846 0.458343
-0.349358 3.515682 0.436546
-0.321506 3.495701 0.429886
-0.293655 3.475115 0.422015
-0.266408 3.455740 0.412327
-0.237951 3.434548 0.412327
-0.210705 3.414568 0.404456
-0.185880 3.397009 0.375999
-0.156818 3.375817 0.378421
-0.129571 3.355837 0.368128
-0.099903 3.334040 0.378421
-0.072657 3.314059 0.370550
-0.045411 3.294684 0.358440
-0.018164 3.274098 0.352991
0.009688 3.254117 0.347542
0.038145 3.233531 0.344514
0.065997 3.212945 0.342698
0.095059 3.191148 0.347542
0.122306 3.171167 0.342093
0.151368 3.149976 0.344514
0.179220 3.129390 0.340276
0.208888 3.107593 0.348147
0.237951 3.086401 0.352386
0.266408 3.065815 0.352991
0.294866 3.044623 0.352991
0.322717 3.024643 0.351175
0.351780 3.002846 0.359046
0.380237 2.981654 0.362073
0.408695 2.960463 0.364495
0.436546 2.940482 0.361468
0.462582 2.921712 0.343909
0.490434 2.901126 0.339065
0.518285 2.881146 0.333616
0.544321 2.862376 0.318479
0.570356 2.843606 0.297893
0.596997 2.824231 0.290022
0.626665 2.802434 0.299709
0.653911 2.782453 0.294866
0.680552 2.763684 0.276701
0.707798 2.743098 0.273674
0.735650 2.722512 0.273069
0.764108 2.701925 0.272463
0.791959 2.681945 0.270041
0.819811 2.661359 0.270647
0.848268 2.640167 0.274885
0.874909 2.620792 0.265197
0.902155 2.600811 0.257932
0.930007 2.580225 0.259748
0.958465 2.559639 0.261565
0.986316 2.539053 0.260354
1.013563 2.519072 0.255510
1.042625 2.497275 0.270647
1.071688 2.475478 0.283967
1.100145 2.454892 0.288811
1.127997 2.433701 0.290627
1.155243 2.414326 0.283967
1.181884 2.394950 0.271252
1.209131 2.374970 0.269436
1.236982 2.354384 0.270041
1.263623 2.335614 0.258537
1.293291 2.313211 0.280334
1.321143 2.292625 0.284573
1.348995 2.272039 0.288811
1.377452 2.250848 0.296682
1.405909 2.229656 0.303948
1.433761 2.209070 0.308186
1.461008 2.189089 0.305159
1.487043 2.170320 0.290627
1.650521 2.050436 0.282151
1.678978 2.029850 0.293655
1.708041 2.008053 0.310002
1.737709 1.985045 0.340882
1.766772 1.963248 0.362679
1.795834 1.941451 0.381448
1.823686 1.920865 0.394163
1.852143 1.899068 0.405667
1.880601 1.877876 0.421410
1.907847 1.857895 0.425648
1.935093 1.837915 0.426253
1.962340 1.817934 0.429886
1.988980 1.798559 0.420804
2.016832 1.777973 0.432914
2.042262 1.759809 0.416566
2.067692 1.741644 0.397191
2.093727 1.722875 0.389319
2.120974 1.702894 0.388714
2.147009 1.684124 0.379026
2.173650 1.664144 0.378421
2.200896 1.643558 0.387503
2.227537 1.624788 0.383870
2.254178 1.604807 0.381448
2.282030 1.584221 0.392952
2.308065 1.565452 0.382659
2.334706 1.546077 0.383870
2.360136 1.527912 0.369944
2.383749 1.511565 0.328772
2.409179 1.493400 0.313030
2.437031 1.472814 0.327561
2.463672 1.452834 0.329378
2.489707 1.434064 0.321506
2.514531 1.416505 0.299104
2.539961 1.397736 0.286389
2.566602 1.378360 0.286994
2.593243 1.358985 0.285783
2.618067 1.341426 0.265803
2.644103 1.322657 0.253693
2.670138 1.303887 0.251271
2.696173 1.284512 0.249455
2.722814 1.265137 0.250061
2.800920 1.207617 0.242795
2.828772 1.187031 0.262775
2.857835 1.164628 0.303342
2.883870 1.145253 0.302131
2.909906 1.126483 0.297893
2.936546 1.107108 0.301526
2.961976 1.088339 0.301526
2.988617 1.068963 0.298498
3.014047 1.050194 0.297287
3.041293 1.029608 0.316057
3.067934 1.010233 0.320901
3.093969 0.990857 0.320901
3.120005 0.972088 0.319690
3.146040 0.952713 0.322112
3.170865 0.934548 0.313635
3.195689 0.916990 0.294260
3.221724 0.898220 0.293655
3.247154 0.879450 0.289416
3.272584 0.860681 0.283362
3.298014 0.842516 0.279123
3.324049 0.823747 0.272463
3.415476 0.824352 0.218576
3.393073 0.840094 0.228264
3.371276 0.855837 0.246428
3.350085 0.870974 0.264592
3.327682 0.887321 0.270041
3.304674 0.904275 0.274885
3.281666 0.921833 0.259748
3.259869 0.936970 0.285178
3.238072 0.952713 0.296682
3.215064 0.969666 0.294866
3.192662 0.986014 0.296682
3.169654 1.002967 0.297287
3.147857 1.018709 0.313030
3.124849 1.035662 0.309397
3.101841 1.052616 0.303342
3.078227 1.070174 0.294260
3.054614 1.087733 0.286389
3.032211 1.104686 0.287600
3.008598 1.121640 0.283967
2.986195 1.137987 0.284573
2.963187 1.154941 0.283967
2.940179 1.171894 0.286994
2.917171 1.189453 0.280334
2.894163 1.206406 0.275490
2.869944 1.224570 0.260959
2.846331 1.242129 0.247033
2.753693 1.310547 0.242795
2.731896 1.325684 0.260959
2.709494 1.342032 0.269436
2.686486 1.358985 0.268830
2.663478 1.376544 0.265803
2.640470 1.392892 0.271858
2.618067 1.409845 0.274885
2.595059 1.426798 0.273069
2.571446 1.443752 0.276701
2.549043 1.460099 0.280334
2.526035 1.477053 0.277912
2.504238 1.492795 0.296682
2.482441 1.508537 0.313030
2.460039 1.524885 0.322112
2.436425 1.541838 0.322717
2.414023 1.558791 0.322717
2.391015 1.575745 0.323928
2.367401 1.592698 0.326956
2.344999 1.609651 0.327561
2.321991 1.625999 0.329983
2.298377 1.643558 0.329378
2.275369 1.660511 0.330589
2.252361 1.677464 0.331194
2.228748 1.694418 0.329378
2.206345 1.710765 0.339065
2.183943 1.727113 0.351780
2.161540 1.743461 0.356624
2.138532 1.760414 0.365101
2.115524 1.777367 0.361468
2.092516 1.794321 0.367522
2.070114 1.810063 0.378421
2.046500 1.828227 0.370550
2.024703 1.843969 0.388714
2.001695 1.860317 0.393558
1.978082 1.877876 0.391741
1.954468 1.894829 0.390530
1.932671 1.911177 0.402034
1.909663 1.928130 0.406878
1.883628 1.948111 0.375999
1.859409 1.965670 0.369944
1.834585 1.984439 0.352991
1.809155 2.004420 0.325139
1.784936 2.021979 0.319690
1.760717 2.040143 0.311213
1.737709 2.057096 0.314846
1.713490 2.075260 0.307581
1.689876 2.092214 0.306975
1.666868 2.109772 0.307581
1.643255 2.126726 0.309397
1.619642 2.144284 0.305159
1.596634 2.161238 0.311819
1.572415 2.178796 0.311213
1.548801 2.196355 0.306975
1.524582 2.214519 0.303948
1.501574 2.231473 0.303342
1.477961 2.248426 0.307581
1.454953 2.265984 0.310002
1.431339 2.282938 0.314846
1.408331 2.299286 0.321506
1.384718 2.317450 0.317874
1.359893 2.335614 0.310608
1.335674 2.353778 0.299709
1.309639 2.373759 0.277307
1.285420 2.391318 0.274279
1.262412 2.408271 0.280334
1.240010 2.424619 0.291233
1.216396 2.442177 0.293655
1.193994 2.458525 0.304553
1.170380 2.475478 0.310002
1.146767 2.492432 0.311213
1.122548 2.510596 0.305764
1.095907 2.531182 0.280940
1.071083 2.549952 0.264592
1.047469 2.567510 0.269436
1.025067 2.583253 0.283362
1.002059 2.600206 0.288811
0.976023 2.619581 0.273069
0.951804 2.637745 0.268830
0.928191 2.655304 0.268830
0.903972 2.672863 0.267014
0.879147 2.691632 0.262775
0.856140 2.708586 0.265197
0.832526 2.726144 0.267619
0.808307 2.743703 0.270647
0.784694 2.761262 0.269436
0.760475 2.778821 0.270647
0.737467 2.795774 0.276096
0.712037 2.814543 0.266408
0.689634 2.830891 0.277307
0.666021 2.847845 0.286389
0.641802 2.866009 0.283362
0.616977 2.884778 0.276096
0.593969 2.901732 0.282151
0.570356 2.918685 0.287600
0.547953 2.935033 0.303342
0.524946 2.951380 0.313635
0.502543 2.967728 0.325745
0.478930 2.985287 0.331194
0.455922 3.001635 0.340276
0.432308 3.019194 0.345725
0.408695 3.036147 0.353597
0.385081 3.053705 0.353597
0.360257 3.071870 0.350569
0.336038 3.090034 0.349358
0.311819 3.107593 0.349964
0.287600 3.125757 0.345725
0.262775 3.143921 0.341487
0.237951 3.162691 0.339671
0.214338 3.179644 0.342093
0.190119 3.197808 0.339671
0.165294 3.215972 0.336643
0.141075 3.234742 0.334221
0.116856 3.252301 0.337249
0.092032 3.270465 0.332405
0.068419 3.288024 0.338460
0.044200 3.305582 0.337854
0.019981 3.323141 0.339065
-0.004238 3.341305 0.339065
-0.027246 3.358259 0.349358
-0.051465 3.376423 0.348753
-0.076290 3.393982 0.347542
-0.101720 3.412751 0.344514
-0.124728 3.429705 0.353597
-0.147736 3.446658 0.362073
-0.171954 3.463611 0.367522
-0.196173 3.481775 0.366311
-0.219181 3.498123 0.379632
-0.242795 3.515682 0.382659
-0.266408 3.533240 0.389925
-0.290022 3.550799 0.394769
-0.313635 3.568358 0.398402
-0.337854 3.585311 0.403851
-0.360862 3.602264 0.414144
-0.383870 3.619218 0.425648
-0.406878 3.635566 0.436546
-0.432308 3.654335 0.429886
-0.457738 3.673710 0.420804
-0.482562 3.692480 0.416566
-0.508598 3.711250 0.408089
-0.532817 3.730019 0.406273
-0.556430 3.746367 0.415960
-0.582465 3.766348 0.402034
-0.621821 3.797832 0.294260
-0.644829 3.815391 0.300920
-0.669048 3.832950 0.302737
-0.693267 3.850509 0.309397
-0.716275 3.867462 0.319085
-0.739889 3.884415 0.328167
-0.764108 3.902579 0.329378
-0.790748 3.922560 0.314846
-0.818600 3.943752 0.291233
-0.844030 3.962521 0.283967
-0.868249 3.980685 0.288205
-0.893679 3.999455 0.283362
-0.917898 4.017619 0.284573
-0.943328 4.036389 0.279729
-0.965730 4.052737 0.296077
-0.989344 4.069690 0.301526
-1.017801 4.090882 0.278518
-1.045047 4.112073 0.259143
-1.070477 4.130843 0.255510
-1.095907 4.149612 0.248850
-1.124970 4.172015 0.216760
-1.158271 4.198050 0.159845
-1.187333 4.220453 0.130177
-1.210947 4.238012 0.136232
-1.237588 4.257387 0.125333
-1.264229 4.277973 0.112618
-1.291475 4.298559 0.095059
-1.317510 4.317329 0.089005
-1.345362 4.338520 0.069629
-1.371397 4.357895 0.060547
-1.397433 4.377876 0.050860
-1.422863 4.396646 0.049043
-1.448898 4.416021 0.041778
-1.475539 4.436001 0.030879
-1.500363 4.454166 0.030274
-1.525188 4.472330 0.033301
-1.550012 4.491100 0.033301
-1.576047 4.510475 0.026035
-1.600872 4.528639 0.026641
-1.626302 4.547409 0.024824
-1.649915 4.564967 0.030274
-1.600872 4.558913 0.029063
-1.571809 4.537721 0.027852
-1.542746 4.516529 0.027246
-1.513684 4.494732 0.029063
-1.484016 4.472935 0.032696
-1.454953 4.451744 0.032090
-1.424679 4.428736 0.042383
-1.391984 4.404517 0.065391
-1.365343 4.385142 0.052071
-1.335674 4.363345 0.056915
-1.307217 4.342759 0.049043
-1.273311 4.316723 0.083555
-1.241826 4.292504 0.103536
-1.213369 4.271918 0.101720
-1.182490 4.248910 0.115645
-1.154032 4.227719 0.112013
-1.115282 4.198050 0.178009
-1.080165 4.170804 0.221603
-1.048680 4.147191 0.240978
-1.020223 4.125999 0.239767
-0.987527 4.101175 0.267619
-0.956043 4.077561 0.286389
-0.928796 4.058186 0.273674
-0.901550 4.038205 0.262775
-0.871276 4.015803 0.271858
-0.843425 3.995822 0.265197
-0.814362 3.973420 0.270041
-0.785299 3.952228 0.269436
-0.751393 3.926798 0.307581
-0.722330 3.905001 0.307581
-0.695084 3.885626 0.297893
-0.667232 3.865040 0.293049
-0.639380 3.844454 0.286389
-0.610923 3.823868 0.285178
-0.583676 3.803887 0.274279
-0.545532 3.774219 0.340882
-0.514652 3.750605 0.362679
-0.487406 3.731230 0.351780
-0.457132 3.708828 0.362679
-0.426859 3.685820 0.375999
-0.396585 3.662812 0.389925
-0.366311 3.641015 0.399007
-0.337249 3.619218 0.403851
-0.311819 3.601659 0.379026
-0.283967 3.581073 0.371155
-0.254904 3.559276 0.379026
-0.227658 3.539901 0.365706
-0.199806 3.519315 0.362073
-0.171954 3.499334 0.352991
-0.144708 3.479353 0.345725
-0.116251 3.458767 0.344514
-0.088399 3.438181 0.338460
-0.061153 3.418201 0.329983
-0.030879 3.395798 0.343909
-0.004238 3.376423 0.329983
0.025430 3.354626 0.337249
0.051465 3.335251 0.320901
0.079922 3.315270 0.318479
0.108380 3.293473 0.321506
0.138048 3.271676 0.328167
0.166505 3.250484 0.331799
0.196173 3.229293 0.334827
0.224631 3.208101 0.337249
0.253088 3.187515 0.338460
0.281545 3.166929 0.337854
0.310608 3.145132 0.341487
0.338460 3.124546 0.343303
0.367522 3.103354 0.347542
0.395980 3.082163 0.348753
0.422620 3.062788 0.340276
0.449867 3.042807 0.328772
0.477719 3.022826 0.323323
0.504965 3.002846 0.317268
0.531606 2.984076 0.299709
0.558247 2.964701 0.289416
0.584282 2.945931 0.268225
0.612134 2.925951 0.263381
0.639985 2.905364 0.260959
0.668443 2.884173 0.267014
0.696900 2.862981 0.271858
0.724146 2.843001 0.262775
0.753209 2.821809 0.271252
0.781061 2.801829 0.265197
0.808913 2.781242 0.266408
0.836764 2.760656 0.263986
0.865222 2.739465 0.267014
0.893073 2.719484 0.268830
0.921531 2.698293 0.269436
0.949382 2.677706 0.269436
0.977840 2.657120 0.274885
1.005691 2.636534 0.274885
1.034149 2.615343 0.280334
1.062606 2.594151 0.286389
1.091063 2.572960 0.291838
1.119520 2.552373 0.296077
1.147372 2.531787 0.301526
1.176435 2.509990 0.311819
1.204287 2.489404 0.312424
1.230928 2.470635 0.302131
1.258779 2.450048 0.300920
1.284815 2.431279 0.284573
1.312061 2.411298 0.281545
1.340518 2.390107 0.289416
1.370186 2.367099 0.318479
1.399249 2.345907 0.328167
1.427101 2.325926 0.326956
1.454347 2.305340 0.329378
1.482199 2.284754 0.333616
1.509445 2.264774 0.334221
1.536692 2.244793 0.329378
1.563938 2.225418 0.319690
1.591184 2.204832 0.325139
1.619642 2.184246 0.331194
1.646282 2.164870 0.327561
1.672923 2.145495 0.320295
1.700775 2.124909 0.319690
1.728627 2.104323 0.327561
1.755873 2.084342 0.331194
1.784330 2.063151 0.339671
1.811577 2.043170 0.340276
1.838217 2.023190 0.337249
1.866069 2.003209 0.342698
1.893316 1.983228 0.346331
1.920562 1.963248 0.342698
1.948414 1.942056 0.357229
1.976265 1.922076 0.360257
2.003512 1.901489 0.363890
2.030758 1.881509 0.366311
2.058610 1.860923 0.374183
2.084645 1.842153 0.365101
2.110075 1.823989 0.348147
2.137321 1.804008 0.349964
2.163357 1.784633 0.343303
2.189998 1.765258 0.337854
2.216638 1.745883 0.336643
2.243279 1.727113 0.326956
2.268709 1.708343 0.314241
2.295350 1.688968 0.313635
2.322596 1.668988 0.315452
2.349843 1.649007 0.319690
2.376483 1.629632 0.318479
2.403124 1.609651 0.317874
2.428554 1.591487 0.307581
2.455195 1.572112 0.300920
2.480625 1.553948 0.285783
2.507266 1.534573 0.282756
2.533301 1.515803 0.277307
2.559942 1.495822 0.278518
2.585977 1.477053 0.273069
2.612618 1.457072 0.276096
2.638653 1.438302 0.271252
2.665294 1.418927 0.271858
2.691935 1.399552 0.271858
2.717970 1.380177 0.270041
2.744006 1.361407 0.262170
2.769436 1.343243 0.245822
2.794260 1.325684 0.229474
2.820901 1.305704 0.232502
2.846936 1.286934 0.231896
2.874183 1.266953 0.234924
2.901429 1.246367 0.253088
2.928675 1.225781 0.270647
2.955316 1.206406 0.276701
2.981351 1.187031 0.275490
3.007387 1.168261 0.271252
3.034028 1.148280 0.281545
3.058247 1.131327 0.256115
3.086098 1.110136 0.280940
3.112739 1.090760 0.288205
3.139380 1.070780 0.299709
3.163599 1.053827 0.271858
3.189029 1.035057 0.265197
3.215670 1.015682 0.272463
3.242916 0.995096 0.290627
3.267135 0.978142 0.270041
3.291959 0.959978 0.253088
3.318600 0.940603 0.265803
3.344030 0.921833 0.257326
3.368854 0.903669 0.247033
3.394284 0.885505 0.237951
3.419714 0.867341 0.231896
3.443328 0.850993 0.191935
3.468758 0.832829 0.185275
3.494187 0.814059 0.181642
3.572899 0.817692 0.145919
3.550496 0.834645 0.145919
3.527488 0.850993 0.142286
3.505086 0.867341 0.142286
3.483289 0.883689 0.147130
3.461492 0.899431 0.161661
3.440906 0.913962 0.188302
3.419714 0.928494 0.209494
3.397917 0.944236 0.223420
3.376120 0.960584 0.228869
3.353112 0.976931 0.228869
3.331315 0.992674 0.237346
3.308307 1.009627 0.228264
3.285905 1.026580 0.223420
3.263502 1.042928 0.229474
3.241705 1.058670 0.236740
3.219302 1.075018 0.240373
3.196295 1.092577 0.233107
3.173287 1.109530 0.225842
3.150884 1.125878 0.228869
3.130298 1.139804 0.264592
3.108501 1.155546 0.272463
3.086098 1.171894 0.277912
3.063696 1.188847 0.273069
3.040082 1.206406 0.263381
3.017680 1.222754 0.267619
2.995277 1.239101 0.268830
2.973480 1.254844 0.278518
2.948050 1.274219 0.245822
2.925042 1.291778 0.237951
2.902640 1.308125 0.241584
2.880237 1.324473 0.244611
2.856624 1.342032 0.237951
2.833616 1.358985 0.232502
2.811213 1.375333 0.234924
2.789416 1.391075 0.251271
2.767014 1.407423 0.254299
2.744611 1.423771 0.260959
2.721603 1.440724 0.259748
2.699201 1.457072 0.266408
2.676798 1.473420 0.266408
2.654396 1.489767 0.275490
2.631993 1.506115 0.279123
2.608985 1.523069 0.276701
2.585372 1.540627 0.274885
2.562969 1.556975 0.278518
2.540567 1.573323 0.282756
2.517559 1.590276 0.285783
2.494551 1.607229 0.280334
2.471543 1.624183 0.284573
2.449140 1.640530 0.292444
2.426738 1.656878 0.299104
2.403730 1.673226 0.303342
2.380722 1.690179 0.302131
2.357714 1.707132 0.301526
2.334706 1.724086 0.303342
2.312909 1.740434 0.312424
2.289901 1.757387 0.316057
2.266893 1.773735 0.317268
2.243885 1.790688 0.319085
2.220877 1.807641 0.322717
2.198474 1.823989 0.329378
2.175466 1.840337 0.333616
2.152458 1.857290 0.337249
2.131267 1.873032 0.356624
2.108259 1.889380 0.362073
2.085251 1.906333 0.365706
2.062243 1.922681 0.371155
2.039840 1.939634 0.374183
2.016227 1.956588 0.372972
1.993219 1.973541 0.376605
1.969605 1.991100 0.371155
1.945992 2.008658 0.365706
1.921773 2.026822 0.357229
1.898765 2.043776 0.356018
1.874546 2.061940 0.348753
1.850932 2.079499 0.345725
1.827924 2.095846 0.351780
1.804311 2.113405 0.349964
1.780698 2.130964 0.344514
1.757084 2.148523 0.342093
1.733471 2.166081 0.340276
1.709857 2.183035 0.341487
1.686244 2.200593 0.338460
1.662630 2.218152 0.340882
1.639622 2.235105 0.340882
1.617220 2.251453 0.354807
1.593606 2.269012 0.352991
1.569993 2.285965 0.355413
1.545774 2.304129 0.347542
1.522766 2.321083 0.351175
1.497941 2.339247 0.339671
1.474328 2.356806 0.339065
1.448898 2.376181 0.323323
1.425285 2.393739 0.320295
1.399855 2.412509 0.300920
1.376241 2.430068 0.305764
1.352628 2.447627 0.303342
1.327803 2.465791 0.292444
1.302979 2.484560 0.282151
1.280576 2.500908 0.292444
1.256357 2.518467 0.290022
1.234560 2.534815 0.306975
1.210947 2.551768 0.311819
1.186728 2.569932 0.305764
1.161904 2.588096 0.299104
1.137079 2.606866 0.286389
1.111649 2.625636 0.274885
1.088641 2.642589 0.277912
1.064422 2.660753 0.273674
1.040203 2.678312 0.274279
1.016590 2.695871 0.274279
0.992371 2.713429 0.276701
0.968152 2.731594 0.272463
0.944539 2.748547 0.276701
0.920320 2.766711 0.271858
0.896101 2.784270 0.273069
0.872487 2.802434 0.273069
0.848268 2.819993 0.271858
0.824049 2.838157 0.268830
0.799830 2.855716 0.268830
0.775612 2.873880 0.267014
0.751998 2.890833 0.273069
0.727174 2.908997 0.267619
0.702349 2.927767 0.262775
0.678736 2.945326 0.262775
0.653306 2.964095 0.253693
0.628481 2.982260 0.250666
0.605473 2.999818 0.253693
0.582465 3.016166 0.265803
0.559457 3.033119 0.277307
0.536450 3.049467 0.286389
0.512231 3.067026 0.288811
0.489223 3.083979 0.299104
0.466215 3.100327 0.311819
0.443207 3.117280 0.323928
0.418988 3.134839 0.322717
0.395980 3.151792 0.333010
0.372972 3.168745 0.342698
0.348147 3.186910 0.339065
0.323928 3.205074 0.337249
0.299104 3.223238 0.336643
0.274885 3.241402 0.333616
0.250061 3.259566 0.331799
0.225236 3.277731 0.331194
0.201017 3.295895 0.329378
0.176798 3.314059 0.329983
0.151974 3.332223 0.325745
0.125938 3.351598 0.315452
0.099298 3.371579 0.296077
0.073868 3.390954 0.288205
0.050254 3.407907 0.297287
0.026641 3.425466 0.302131
0.001816 3.443025 0.303948
-0.021797 3.460584 0.310608
-0.046016 3.478142 0.316057
-0.070235 3.495701 0.317874
-0.094454 3.513865 0.318479
-0.119278 3.532030 0.319690
-0.142892 3.549588 0.323323
-0.167111 3.567147 0.330589
-0.191330 3.584706 0.330589
-0.216760 3.603475 0.328167
-0.241584 3.621640 0.325745
-0.265197 3.639804 0.330589
-0.290022 3.657968 0.327561
-0.314846 3.676132 0.332405
-0.340882 3.695507 0.319085
-0.368128 3.716093 0.297287
-0.394163 3.736074 0.288205
-0.418988 3.753633 0.289416
-0.444418 3.773008 0.284573
-0.473480 3.795411 0.247639
-0.499516 3.814786 0.242189
-0.523129 3.832344 0.248244
-0.547348 3.849903 0.253088
-0.570961 3.866856 0.262775
-0.595786 3.885021 0.262775
-0.620005 3.903185 0.268225
-0.644224 3.920744 0.271858
-0.669048 3.938908 0.274885
-0.694478 3.957677 0.267619
-0.719302 3.976447 0.267014
-0.745338 3.995822 0.257326
-0.771373 4.015197 0.251271
-0.797409 4.034573 0.242189
-0.823444 4.054553 0.233107
-0.848874 4.073323 0.229474
-0.873093 4.090882 0.234924
-0.898523 4.109651 0.231291
-0.923953 4.128421 0.227053
-0.951199 4.149007 0.213127
-0.976629 4.167777 0.210705
-1.005691 4.190179 0.180431
-1.032938 4.210765 0.167111
-1.057157 4.228324 0.173165
-1.084403 4.248910 0.156212
-1.116493 4.274340 0.104141
-1.142528 4.293110 0.101720
-1.169775 4.313696 0.086583
-1.198232 4.335493 0.063575
-1.225478 4.356079 0.047832
-1.252119 4.376060 0.037539
-1.278155 4.395435 0.032696
-1.301163 4.411783 0.046621
-1.329014 4.432974 0.027246
-1.353233 4.451138 0.033301
-1.379269 4.470513 0.029063
-1.404698 4.489283 0.025430
-1.429523 4.506842 0.032090
-1.455558 4.526822 0.026035
-1.480383 4.544987 0.028457
-1.505207 4.563756 0.028457
-1.531242 4.582526 0.027852
-1.462218 4.558307 0.027246
-1.432550 4.536510 0.032090
-1.404698 4.515924 0.024824
-1.375030 4.494127 0.027246
-1.345968 4.472935 0.027852
-1.316905 4.451138 0.027246
-1.287237 4.429947 0.028457
-1.258174 4.408150 0.029063
-1.228506 4.385747 0.035117
-1.198837 4.364556 0.035723
-1.169169 4.342759 0.039961
-1.138896 4.319751 0.050254
-1.104384 4.293715 0.085977
-1.071083 4.267680 0.118673
-1.037782 4.242250 0.150763
-1.005691 4.218636 0.168927
-0.976023 4.196839 0.173165
-0.945144 4.173226 0.188908
-0.914870 4.150823 0.197990
-0.886413 4.130237 0.192541
-0.857350 4.108440 0.197384
-0.826471 4.086038 0.207072
-0.796198 4.063030 0.218576
-0.765318 4.040022 0.233107
-0.734439 4.017014 0.245217
-0.704771 3.994611 0.252482
-0.677525 3.975236 0.241584
-0.646646 3.952228 0.255510
-0.618794 3.931642 0.248244
-0.590337 3.910450 0.247033
-0.561879 3.889864 0.243400
-0.534028 3.869884 0.235529
-0.506176 3.849298 0.229474
-0.477719 3.828106 0.225842
-0.445023 3.803282 0.258537
-0.413538 3.779668 0.276701
-0.384476 3.758477 0.278518
-0.355413 3.736680 0.282756
-0.326350 3.715488 0.282151
-0.296077 3.693085 0.294260
-0.267014 3.671894 0.296077
-0.236740 3.648886 0.309397
-0.209494 3.628905 0.300315
-0.178615 3.606503 0.314846
-0.150763 3.585917 0.311819
-0.123517 3.565936 0.302737
-0.093848 3.544139 0.307581
-0.065997 3.523553 0.301526
-0.038750 3.503572 0.293655
-0.010293 3.482986 0.289416
0.017559 3.462400 0.285178
0.046016 3.441814 0.284573
0.073868 3.421228 0.280940
0.101114 3.401247 0.270647
0.131388 3.379450 0.280334
0.162872 3.355231 0.306975
0.193752 3.332223 0.326956
0.222209 3.311032 0.326956
0.250666 3.289840 0.329378
0.279729 3.268649 0.333616
0.307581 3.248062 0.331194
0.336643 3.226871 0.332405
0.365101 3.206285 0.330589
0.392952 3.185699 0.330589
0.418988 3.166929 0.310608
0.446839 3.146948 0.305764
0.473480 3.127573 0.288811
0.500727 3.107593 0.283362
0.527973 3.088217 0.271858
0.555219 3.068237 0.262775
0.581860 3.049467 0.249455
0.609106 3.028881 0.243400
0.638169 3.007690 0.247033
0.666626 2.986498 0.252482
0.695689 2.965306 0.256115
0.723541 2.944720 0.259143
0.751393 2.924134 0.255510
0.780455 2.902943 0.263986
0.810124 2.880540 0.279729
0.837370 2.860559 0.273069
0.865222 2.839973 0.271252
0.895495 2.817571 0.290627
0.921531 2.798801 0.272463
0.949988 2.778215 0.273069
0.977840 2.757629 0.274885
1.005691 2.737043 0.276701
1.034149 2.715851 0.279729
1.062000 2.695871 0.279123
1.089852 2.675285 0.278518
1.118310 2.654093 0.281545
1.147978 2.631690 0.305764
1.176435 2.610499 0.312424
1.205498 2.589307 0.323323
1.232744 2.568721 0.321506
1.257568 2.551768 0.287600
1.285420 2.531182 0.290022
1.312061 2.511807 0.283967
1.340518 2.491221 0.285783
1.369581 2.469424 0.302131
1.398038 2.448232 0.310608
1.425890 2.427646 0.312424
1.456164 2.404638 0.342093
1.485226 2.382841 0.359651
1.513684 2.361044 0.371155
1.540930 2.341669 0.366311
1.568782 2.321083 0.370550
1.595423 2.301102 0.366311
1.622063 2.282332 0.354202
1.649310 2.262352 0.350569
1.677162 2.241766 0.361468
1.705013 2.221179 0.363284
1.732865 2.200593 0.369339
1.758900 2.181218 0.360257
1.786147 2.161843 0.357835
1.813393 2.141862 0.360257
1.841245 2.120671 0.366917
1.869097 2.100085 0.374788
1.896343 2.080104 0.378421
1.924195 2.059518 0.383265
1.951441 2.039537 0.384476
1.978687 2.020162 0.383870
2.004723 2.000787 0.377210
2.031969 1.980806 0.374788
2.058610 1.960826 0.375394
2.084645 1.942662 0.365101
2.111891 1.922681 0.362073
2.137321 1.904517 0.346331
2.162751 1.885747 0.332405
2.189998 1.866372 0.331799
2.216033 1.846997 0.326956
2.242674 1.827622 0.321506
2.269315 1.808247 0.316663
2.295350 1.788871 0.313030
2.321991 1.769496 0.310608
2.348026 1.751332 0.300315
2.374667 1.731957 0.295471
2.401308 1.711976 0.298498
2.427343 1.693207 0.291233
2.453984 1.673831 0.286994
2.479414 1.655062 0.279729
2.506660 1.635687 0.277307
2.533301 1.615706 0.280334
2.559942 1.596331 0.282756
2.586583 1.576350 0.283362
2.612013 1.558186 0.273069
2.638653 1.538205 0.274885
2.664689 1.519436 0.270041
2.690724 1.500666 0.260959
2.716154 1.481896 0.255510
2.742795 1.462521 0.254904
2.769436 1.443146 0.254904
2.794866 1.424376 0.250061
2.821506 1.405607 0.248850
2.847542 1.386232 0.247033
2.874183 1.366856 0.247033
2.899612 1.348087 0.241584
2.925648 1.329317 0.238557
2.951683 1.309942 0.236740
2.978324 1.290567 0.240978
3.006176 1.269375 0.267619
3.032211 1.250000 0.273674
3.058852 1.230625 0.276701
3.084282 1.211855 0.274279
3.110317 1.192480 0.273674
3.133325 1.176738 0.232502
3.158755 1.158574 0.219181
3.184791 1.139804 0.222209
3.210826 1.121034 0.216154
3.236256 1.101659 0.220998
3.262291 1.082889 0.216154
3.286510 1.065936 0.191935
3.313151 1.045955 0.207677
3.338581 1.027791 0.196173
3.364011 1.008416 0.202834
3.391862 0.987225 0.234924
3.416687 0.969666 0.218576
3.440906 0.952713 0.194357
3.464519 0.935759 0.164083
3.490555 0.917595 0.162267
3.515379 0.899431 0.153790
3.540809 0.881267 0.142892
3.565028 0.863102 0.131388
3.589852 0.846149 0.106563
3.614071 0.828590 0.093243
3.705498 0.815270 0.049649
3.682490 0.832223 0.052676
3.659482 0.848571 0.055098
3.636474 0.865524 0.056915
3.612860 0.883689 0.045411
3.595302 0.893982 0.138048
3.573504 0.909724 0.161056
3.550496 0.926072 0.168322
3.527488 0.942419 0.170744
3.504481 0.959978 0.167716
3.480867 0.977537 0.159845
3.457859 0.994490 0.157423
3.436062 1.010233 0.179220
3.413054 1.026580 0.186486
3.390046 1.043534 0.182248
3.367038 1.060487 0.187697
3.342819 1.078651 0.171349
3.322233 1.092577 0.211916
3.298620 1.110741 0.201623
3.275612 1.126483 0.210705
3.252604 1.144042 0.209494
3.229596 1.160995 0.212521
3.207193 1.176738 0.227053
3.183580 1.194296 0.223420
3.160572 1.211250 0.219787
3.137564 1.228203 0.225236
3.115767 1.243340 0.250666
3.093969 1.259082 0.264592
3.070356 1.276641 0.261565
3.047348 1.293594 0.265197
3.023735 1.311153 0.256721
2.998305 1.329922 0.233107
2.975902 1.346876 0.238557
2.952289 1.363829 0.237346
2.929281 1.380782 0.241584
2.906273 1.397736 0.245217
2.883265 1.414689 0.247639
2.860257 1.431642 0.253088
2.836643 1.449201 0.248244
2.813635 1.465549 0.257326
2.791233 1.481896 0.267014
2.766408 1.500061 0.251877
2.743400 1.517014 0.255510
2.720392 1.533967 0.259143
2.696779 1.551526 0.259748
2.673771 1.567874 0.264592
2.650157 1.585432 0.263986
2.627755 1.602386 0.270041
2.604141 1.619339 0.271858
