1714
-1.573626 0.934094 0.130177
-1.582405 0.940452 0.128360
-1.590882 0.946506 0.125938
-1.598753 0.952561 0.121700
-1.608440 0.959221 0.122608
-1.616311 0.964973 0.117765
-1.624788 0.971331 0.115343
-1.634476 0.978294 0.115645
-1.642650 0.984349 0.111104
-1.650823 0.990403 0.106261
-1.659906 0.997063 0.104141
-1.671410 1.005237 0.111710
-1.681703 1.012503 0.113526
-1.691087 1.019466 0.112315
-1.700170 1.026126 0.109893
-1.709554 1.032786 0.107774
-1.719242 1.039749 0.107169
-1.728627 1.046712 0.104747
-1.738314 1.053675 0.103839
-1.747699 1.060638 0.101114
-1.756479 1.066996 0.097178
-1.764955 1.073050 0.090518
-1.773432 1.079408 0.084464
-1.781000 1.085463 0.074171
-1.791293 1.092728 0.073565
-1.801284 1.099994 0.072354
-1.810971 1.106957 0.069024
-1.821264 1.114525 0.069327
-1.832465 1.122396 0.071143
-1.843364 1.129965 0.071749
-1.855171 1.138442 0.076290
-1.865161 1.146010 0.074171
-1.876665 1.154184 0.076592
-1.884839 1.160239 0.067510
-1.896646 1.168715 0.070840
-1.906636 1.175981 0.067208
-1.917535 1.183852 0.066905
-1.927828 1.191420 0.064786
-1.939029 1.199594 0.065997
-1.950533 1.208071 0.067510
-1.960826 1.215337 0.063877
-1.972027 1.223511 0.064483
-1.982623 1.231079 0.061456
-1.991705 1.238042 0.053584
-2.001998 1.245610 0.050254
-2.015016 1.254995 0.056309
-2.027428 1.263472 0.059034
-2.038932 1.271948 0.060245
-2.050739 1.280425 0.061153
-2.061940 1.288599 0.059034
-2.072536 1.296470 0.056612
-2.083434 1.304341 0.054190
-2.094938 1.312818 0.052676
-2.105231 1.320084 0.046924
-2.116433 1.328257 0.044502
-2.127937 1.336734 0.043897
-2.137624 1.344000 0.036026
-2.147009 1.350963 0.025127
-2.156999 1.358228 0.017559
-2.168201 1.366705 0.015137
-2.180310 1.375182 0.014531
-2.193630 1.384869 0.019678
-2.205134 1.393346 0.017256
-2.216941 1.401822 0.016953
-2.228748 1.410299 0.014531
-2.254783 1.429372 0.021797
-2.265379 1.437243 0.014834
-2.456103 1.574988 0.019678
-2.467607 1.583465 0.014531
-2.480928 1.592849 0.015742
-2.254178 1.389713 0.011201
-2.244187 1.382145 0.014531
-2.233592 1.374576 0.016348
-2.222996 1.366705 0.018164
-2.212703 1.359137 0.020283
-2.203015 1.352174 0.025127
-2.191209 1.343697 0.022403
-2.179099 1.334918 0.017559
-2.168201 1.327047 0.017559
-2.156697 1.318873 0.015742
-2.147312 1.311910 0.019678
-2.137321 1.304341 0.023008
-2.127331 1.297378 0.026338
-2.118249 1.290718 0.032393
-2.109167 1.284058 0.038145
-2.099782 1.276792 0.043594
-2.090397 1.269829 0.048135
-2.080104 1.262564 0.049346
-2.069508 1.254692 0.048438
-2.060124 1.247729 0.052676
-2.050133 1.240767 0.054795
-2.040446 1.233804 0.057217
-2.029850 1.225932 0.056612
-2.017438 1.217153 0.048741
-2.006842 1.209282 0.046924
-1.996852 1.202319 0.048741
-1.987769 1.195659 0.052979
-1.978082 1.188393 0.054795
-1.968697 1.181430 0.057823
-1.959918 1.175073 0.062667
-1.949322 1.167202 0.060850
-1.939029 1.159936 0.059942
-1.929644 1.152973 0.062969
-1.920562 1.146313 0.065391
-1.910572 1.139047 0.065997
-1.901187 1.132084 0.067510
-1.892105 1.125727 0.071143
-1.882114 1.118461 0.070538
-1.872729 1.111498 0.071446
-1.863345 1.104535 0.073262
-1.852749 1.096967 0.069932
-1.842759 1.089701 0.069327
-1.834585 1.083646 0.074473
-1.824897 1.076683 0.074171
-1.817026 1.070628 0.079922
-1.807641 1.063968 0.081436
-1.799164 1.057611 0.084766
-1.790082 1.050951 0.086583
-1.781606 1.044593 0.089005
-1.773129 1.038538 0.092637
-1.765258 1.032786 0.098389
-1.756781 1.026429 0.100811
-1.748002 1.020071 0.102325
-1.739525 1.013714 0.105050
-1.730140 1.007054 0.104141
-1.720756 1.000091 0.103233
-1.713187 0.994642 0.108985
-1.704408 0.988284 0.110196
-1.695326 0.981624 0.109591
-1.685941 0.974661 0.107472
-1.677464 0.968606 0.109893
-1.669290 0.962551 0.112013
-1.661116 0.956497 0.114132
-1.653245 0.950745 0.117462
-1.643860 0.944085 0.114737
-1.635081 0.937727 0.115040
-1.625696 0.930764 0.111710
-1.618431 0.925618 0.117159
-1.609954 0.919260 0.116554
-1.602386 0.913811 0.120489
-1.593909 0.907453 0.119884
-1.585130 0.901096 0.118370
-1.577561 0.895647 0.121397
-1.569690 0.889895 0.123517
-1.561516 0.883840 0.123819
-1.553948 0.878391 0.125938
-1.547893 0.873850 0.133204
-1.540930 0.868703 0.137745
-1.533059 0.862951 0.138653
-1.524582 0.856896 0.137140
-1.516711 0.851144 0.136837
-1.507629 0.844484 0.132901
-1.499152 0.838429 0.130480
-1.489465 0.831466 0.124425
-1.480080 0.824806 0.118370
-1.474631 0.820871 0.126544
-1.468273 0.816027 0.131085
-1.461310 0.810880 0.133507
-1.453136 0.804826 0.131690
-1.444054 0.798468 0.125938
-1.436183 0.792716 0.124122
-1.428615 0.787267 0.124122
-1.421652 0.782120 0.125333
-1.414992 0.777277 0.128360
-1.409240 0.773038 0.132901
-1.403488 0.768800 0.138048
-1.396827 0.763956 0.140167
-1.389259 0.758204 0.138351
-1.381993 0.753058 0.137745
-1.375938 0.748517 0.141378
-1.369581 0.743976 0.143497
-1.363526 0.739434 0.145919
-1.356261 0.734288 0.144405
-1.347178 0.727930 0.136837
-1.338702 0.721876 0.130782
-1.330225 0.715821 0.124728
-1.324473 0.711583 0.127452
-1.318419 0.707042 0.129571
-1.312364 0.702501 0.130480
-1.305704 0.697960 0.130782
-1.297530 0.691905 0.124425
-1.291172 0.687364 0.124425
-1.285420 0.683125 0.125938
-1.279668 0.678887 0.127755
-1.272705 0.674043 0.125636
-1.265742 0.668897 0.122003
-1.258779 0.663750 0.118673
-1.253936 0.660117 0.122608
-1.248486 0.656485 0.125333
-0.978748 0.461825 0.020586
-0.977234 0.460917 0.023311
-0.973601 0.458192 0.024824
-0.971785 0.456678 0.025127
-0.973601 0.457284 0.023008
-0.987527 0.467274 0.025127
-0.990252 0.469091 0.025430
-1.245762 0.651035 0.128058
-1.251514 0.655274 0.126847
-1.256357 0.658907 0.122003
-1.262412 0.663448 0.121397
-1.269375 0.668291 0.124122
-1.276035 0.673135 0.125030
-1.282696 0.677979 0.125030
-1.289356 0.682520 0.125030
-1.295411 0.687061 0.123819
-1.303282 0.692813 0.128360
-1.311153 0.698262 0.132296
-1.317813 0.703106 0.130782
-1.324171 0.707950 0.129874
-1.329922 0.711885 0.125030
-1.337188 0.717335 0.126544
-1.346876 0.723995 0.135323
-1.355352 0.730050 0.140470
-1.363224 0.735802 0.143194
-1.369884 0.740645 0.140470
-1.376847 0.745792 0.139259
-1.383507 0.750333 0.136534
-1.390773 0.755782 0.135626
-1.398644 0.761534 0.137140
-1.405607 0.766378 0.134718
-1.411964 0.771222 0.130480
-1.418624 0.776066 0.126847
-1.425285 0.780909 0.122911
-1.433761 0.787267 0.125333
-1.442238 0.793322 0.127452
-1.451623 0.799982 0.132599
-1.459494 0.805431 0.131993
-1.467365 0.811183 0.130782
-1.474328 0.816330 0.126847
-1.480383 0.820871 0.118673
-1.489767 0.827531 0.123517
-1.499758 0.834797 0.129269
-1.509143 0.841457 0.132599
-1.518527 0.848117 0.136232
-1.527307 0.854474 0.137442
-1.535481 0.860529 0.136232
-1.544260 0.866584 0.136232
-1.551829 0.872336 0.131993
-1.557581 0.876574 0.121095
-1.566965 0.883234 0.123819
-1.575745 0.889895 0.123517
-1.583313 0.895344 0.118067
-1.592395 0.902004 0.118976
-1.601780 0.908664 0.120186
-1.609651 0.914416 0.115948
-1.619339 0.921379 0.117462
-1.626907 0.927131 0.112315
-1.637200 0.934397 0.115645
-1.646888 0.941360 0.117159
-1.656273 0.948323 0.117159
-1.665052 0.954680 0.114737
-1.673529 0.960735 0.111407
-1.682308 0.967093 0.108682
-1.691996 0.974055 0.108380
-1.701380 0.981018 0.107169
-1.711068 0.987981 0.108077
-1.720150 0.994642 0.105050
-1.729232 1.001302 0.103233
-1.739525 1.008567 0.103536
-1.749213 1.015833 0.103536
-1.758598 1.022493 0.100509
-1.767377 1.029154 0.096573
-1.777065 1.036116 0.094757
-1.786450 1.042777 0.091426
-1.796137 1.050042 0.090216
-1.804916 1.056400 0.084464
-1.814604 1.063060 0.082647
-1.823686 1.069720 0.077501
-1.833374 1.076986 0.074776
-1.843061 1.083949 0.071749
-1.852446 1.091215 0.067813
-1.863950 1.099388 0.070840
-1.875151 1.107562 0.073262
-1.884536 1.114223 0.069024
-1.895435 1.122094 0.069932
-1.905425 1.129359 0.066905
-1.916021 1.136928 0.065694
-1.926314 1.144496 0.064180
-1.936607 1.151762 0.061153
-1.947203 1.159633 0.060245
-1.959312 1.168412 0.064483
-1.969000 1.175375 0.059336
-1.978990 1.182641 0.054190
-1.988980 1.190209 0.051163
-1.999273 1.197475 0.046924
-2.009869 1.205346 0.043897
-2.022887 1.214428 0.050860
-2.035602 1.223511 0.055704
-2.046198 1.231382 0.053584
-2.057096 1.239253 0.050860
-2.068297 1.247427 0.049649
-2.079499 1.255601 0.048741
-2.090700 1.263775 0.047832
-2.101296 1.271646 0.043291
-2.111286 1.278911 0.036934
-2.121579 1.286480 0.031485
-2.132175 1.294351 0.027246
-2.142771 1.301919 0.021494
-2.153064 1.309488 0.015440
-2.165173 1.318267 0.016348
-2.177283 1.327047 0.016953
-2.192117 1.337642 0.029063
-2.203318 1.345816 0.025430
-2.214822 1.354293 0.023311
-2.226023 1.362467 0.019375
-2.238133 1.371246 0.019981
-2.250242 1.380025 0.019072
-2.260838 1.387897 0.012715
-2.269315 1.350660 0.011201
-2.259930 1.343697 0.017256
-2.250242 1.336431 0.023008
-2.240252 1.329166 0.026338
-2.230564 1.321900 0.032393
-2.220271 1.314634 0.035420
-2.209675 1.307066 0.036934
-2.196052 1.297076 0.025733
-2.182732 1.287691 0.016348
-2.171833 1.279820 0.016348
-2.162146 1.272857 0.020889
-2.152761 1.265591 0.025430
-2.143376 1.258931 0.030879
-2.133689 1.251968 0.035420
-2.124304 1.245005 0.040264
-2.114011 1.237436 0.041778
-2.103112 1.229263 0.039659
-2.093122 1.221997 0.042383
-2.082223 1.214126 0.040869
-2.071325 1.206255 0.039356
-2.060729 1.198383 0.039053
-2.051950 1.192026 0.046016
-2.041959 1.185063 0.046621
-2.029850 1.176284 0.040264
-2.018346 1.168110 0.035420
-2.009869 1.161752 0.042686
-2.000182 1.154789 0.045713
-1.990797 1.147826 0.048135
-1.981109 1.140561 0.049952
-1.972330 1.134203 0.055704
-1.963550 1.127846 0.061153
-1.954166 1.120883 0.063272
-1.944478 1.113617 0.064180
-1.933580 1.105746 0.061456
-1.924800 1.099388 0.065694
-1.915415 1.092426 0.067813
-1.906031 1.085463 0.069629
-1.896040 1.078500 0.070538
-1.885444 1.070628 0.066602
-1.875757 1.063666 0.067208
-1.866675 1.057005 0.068721
-1.857895 1.050648 0.073262
-1.849116 1.043988 0.075987
-1.839731 1.037327 0.076895
-1.831557 1.030970 0.082042
-1.821870 1.024007 0.082042
-1.812485 1.017347 0.082647
-1.801889 1.009778 0.078409
-1.792202 1.002513 0.077198
-1.783725 0.996458 0.080528
-1.774946 0.990101 0.082950
-1.767680 0.984651 0.090821
-1.760717 0.979202 0.098692
-1.751938 0.972845 0.100509
-1.741947 0.965579 0.097481
-1.732562 0.958919 0.096573
-1.724388 0.952864 0.100509
-1.716517 0.946809 0.104444
-1.708646 0.941057 0.108077
-1.700170 0.935002 0.110499
-1.691996 0.928948 0.113829
-1.683822 0.922893 0.115645
-1.676253 0.917444 0.120186
-1.668079 0.911389 0.122608
-1.659906 0.905334 0.125030
-1.651126 0.898977 0.124122
-1.641741 0.892317 0.121700
-1.631146 0.884748 0.115343
-1.623577 0.878996 0.118067
-1.614192 0.872336 0.115343
-1.604807 0.865676 0.112013
-1.594514 0.858410 0.105352
-1.584221 0.850842 0.098087
-1.578167 0.846301 0.107169
-1.573020 0.842365 0.118370
-1.566965 0.837824 0.126241
-1.560002 0.832677 0.130177
-1.551829 0.826623 0.130782
-1.544260 0.821173 0.132296
-1.536389 0.815421 0.133204
-1.528215 0.809367 0.132599
-1.519436 0.803312 0.129571
-1.512775 0.798165 0.134415
-1.506115 0.793322 0.138351
-1.497336 0.786964 0.134112
-1.487648 0.780001 0.127149
-1.480988 0.775157 0.131388
-1.474025 0.770011 0.134112
-1.467668 0.765470 0.138653
-1.460705 0.760323 0.140773
-1.452834 0.754269 0.138956
-1.444962 0.748819 0.137442
-1.436486 0.742765 0.133810
-1.428009 0.736710 0.129874
-1.420441 0.731261 0.129269
-1.412570 0.725206 0.126544
-1.405001 0.720059 0.125030
-1.397433 0.714610 0.124425
-1.390470 0.709464 0.123819
-1.382296 0.703712 0.120489
-1.375636 0.698565 0.121397
-1.368976 0.693721 0.122608
-1.361710 0.688575 0.121700
-1.355050 0.683731 0.121397
-1.348087 0.678584 0.121095
-1.341729 0.674043 0.122003
-1.335069 0.669200 0.122911
-1.329014 0.664659 0.123819
-1.323565 0.660723 0.128058
-1.315997 0.655274 0.124728
-1.309034 0.650127 0.122911
-1.301465 0.644678 0.118673
-1.294805 0.639834 0.116856
-1.288448 0.635293 0.117765
-1.282998 0.631357 0.120186
-1.276641 0.626514 0.118673
-1.268164 0.620762 0.111104
-0.972390 0.405819 0.024219
-1.268164 0.617432 0.109893
-1.275733 0.622881 0.114434
-1.283907 0.628330 0.120186
-1.289659 0.632871 0.118067
-1.295411 0.637109 0.115343
-1.302676 0.642256 0.117159
-1.310850 0.647705 0.121700
-1.318419 0.653457 0.125030
-1.325684 0.658604 0.126544
-1.332950 0.663750 0.127755
-1.338096 0.667686 0.121397
-1.345059 0.672530 0.121397
-1.352022 0.677676 0.121397
-1.359288 0.682823 0.121700
-1.366554 0.687969 0.121700
-1.373517 0.693419 0.121095
-1.381388 0.698868 0.122608
-1.387745 0.703712 0.119581
-1.396525 0.709766 0.124122
-1.404093 0.715216 0.123517
-1.412267 0.721270 0.126241
-1.420441 0.727022 0.127755
-1.429220 0.733380 0.131690
-1.437697 0.739132 0.134112
-1.446173 0.745489 0.136837
-1.454347 0.751241 0.137442
-1.462218 0.756993 0.137442
-1.470392 0.763048 0.138048
-1.477658 0.768194 0.135021
-1.484016 0.773038 0.129269
-1.492492 0.779093 0.129874
-1.502482 0.786056 0.136232
-1.510959 0.792111 0.136534
-1.517619 0.796954 0.130480
-1.526399 0.803312 0.131690
-1.535178 0.809669 0.132901
-1.543352 0.815724 0.131085
-1.551223 0.821476 0.128966
-1.559094 0.827228 0.126544
-1.567571 0.833586 0.125938
-1.574231 0.838429 0.117765
-1.580286 0.842970 0.107774
-1.585735 0.847209 0.095362
-1.595423 0.854172 0.098087
-1.607532 0.862648 0.108985
-1.618431 0.870217 0.115948
-1.627815 0.876877 0.116554
-1.636898 0.883537 0.116554
-1.648099 0.891408 0.123214
-1.656878 0.898069 0.122003
-1.665960 0.904729 0.121095
-1.674740 0.910783 0.117765
-1.683822 0.917444 0.116554
-1.692601 0.923801 0.114132
-1.701380 0.930159 0.111104
-1.710463 0.936819 0.109288
-1.719242 0.943479 0.106261
-1.727113 0.949231 0.099903
-1.735892 0.955589 0.095362
-1.745883 0.962854 0.096573
-1.756479 0.970423 0.098995
-1.765561 0.977083 0.095362
-1.772524 0.982532 0.084766
-1.780698 0.988284 0.077198
-1.790385 0.995247 0.075381
-1.800981 1.003118 0.077501
-1.811577 1.010687 0.078106
-1.822475 1.018558 0.080528
-1.833071 1.026126 0.081739
-1.842153 1.033089 0.077803
-1.852143 1.039749 0.075381
-1.862134 1.047015 0.073868
-1.872124 1.054281 0.071749
-1.881206 1.060941 0.066299
-1.892105 1.068812 0.067208
-1.903306 1.076986 0.069024
-1.913902 1.084857 0.068419
-1.923892 1.092426 0.066299
-1.934185 1.099388 0.063877
-1.945084 1.107260 0.063272
-1.955679 1.115131 0.062667
-1.965972 1.122699 0.060547
-1.975660 1.129662 0.054795
-1.985650 1.136928 0.050860
-1.995338 1.143891 0.044805
-2.005934 1.151762 0.043594
-2.015924 1.159028 0.038145
-2.026520 1.166899 0.036026
-2.039235 1.175981 0.041172
-2.051041 1.184457 0.042686
-2.061637 1.192329 0.040264
-2.072233 1.199897 0.036934
-2.084342 1.208676 0.039659
-2.096149 1.217153 0.040264
-2.106745 1.225024 0.036631
-2.119460 1.234106 0.040869
-2.130661 1.241977 0.038448
-2.141257 1.249849 0.033907
-2.151853 1.257720 0.029365
-2.162146 1.265288 0.023916
-2.172136 1.272554 0.016045
-2.183943 1.281031 0.016045
-2.197263 1.290718 0.021494
-2.213006 1.301919 0.036934
-2.224510 1.310093 0.035117
-2.236014 1.318570 0.032393
-2.246609 1.326441 0.026338
-2.257508 1.334312 0.020889
-2.268709 1.342486 0.017256
-2.277488 1.349146 0.002422
-2.282938 1.306460 0.010293
-2.272039 1.298589 0.011807
-2.262654 1.291626 0.017559
-2.252664 1.284361 0.020889
-2.242371 1.276792 0.023916
-2.231170 1.268618 0.021797
-2.218758 1.259839 0.014531
-2.207556 1.251665 0.013623
-2.185759 1.235923 0.012412
-2.176980 1.229263 0.019678
-2.167898 1.222602 0.026035
-2.158816 1.215942 0.030576
-2.148825 1.208676 0.033301
-2.138835 1.201411 0.035420
-2.127937 1.193540 0.035420
-2.116433 1.185063 0.030576
-2.105534 1.177192 0.028457
-2.095544 1.169926 0.030274
-2.085251 1.162358 0.030879
-2.075563 1.155092 0.032393
-2.065270 1.147826 0.032696
-2.054372 1.139955 0.031485
-2.044381 1.132387 0.031182
-2.032877 1.124213 0.026641
-2.024401 1.118158 0.032696
-2.014713 1.111195 0.034815
-2.005934 1.104838 0.039356
-1.998062 1.098783 0.047832
-1.988980 1.092123 0.052071
-1.980201 1.085765 0.056915
-1.970513 1.078197 0.057823
-1.959312 1.070326 0.052373
-1.949625 1.063363 0.053282
-1.940543 1.057005 0.056612
-1.931763 1.050345 0.060245
-1.922681 1.043685 0.062667
-1.913296 1.036722 0.063272
-1.903609 1.029759 0.063877
-1.895132 1.023704 0.068721
-1.886353 1.017044 0.071749
-1.877573 1.010687 0.074473
-1.867583 1.003421 0.072960
-1.858198 0.996458 0.072960
-1.847602 0.988890 0.069327
-1.837309 0.981624 0.066602
-1.829438 0.975872 0.072354
-1.821264 0.969817 0.075987
-1.811879 0.962854 0.076592
-1.803100 0.956497 0.077501
-1.794018 0.949837 0.078409
-1.784633 0.942874 0.077198
-1.776459 0.937122 0.081739
-1.769496 0.931672 0.088702
-1.762231 0.926223 0.095665
-1.754662 0.920774 0.100206
-1.745580 0.914114 0.099903
-1.737406 0.908362 0.103536
-1.728930 0.902004 0.104747
-1.719847 0.895344 0.103233
-1.711068 0.888986 0.104444
-1.703802 0.883537 0.108380
-1.694720 0.876877 0.107169
-1.686849 0.871125 0.109591
-1.678372 0.865070 0.110802
-1.669290 0.858410 0.108985
-1.659906 0.851750 0.105050
-1.649915 0.844484 0.100206
-1.639319 0.836916 0.091729
-1.629026 0.829650 0.085674
-1.617522 0.821476 0.074171
-1.608138 0.814816 0.070235
-1.601477 0.809972 0.076290
-1.596331 0.806037 0.087794
-1.591790 0.802404 0.100509
-1.586946 0.798468 0.111104
-1.579983 0.793322 0.115948
-1.571809 0.787570 0.115343
-1.563938 0.781818 0.115948
-1.556672 0.776368 0.118067
-1.548196 0.770011 0.115343
-1.540930 0.764864 0.118067
-1.535783 0.760929 0.127452
-1.530031 0.756690 0.133810
-1.522766 0.751544 0.135929
-1.516106 0.746397 0.138956
-1.507932 0.740343 0.136534
-1.499455 0.734288 0.133507
-1.491281 0.728536 0.130782
-1.484621 0.723692 0.133204
-1.477658 0.718546 0.135021
-1.471906 0.714307 0.140167
-1.464943 0.709161 0.141681
-1.458888 0.704620 0.144708
-1.452228 0.699776 0.146827
-1.445265 0.694629 0.148038
-1.438302 0.689786 0.148341
-1.430431 0.684034 0.145011
-1.421954 0.677979 0.139562
-1.413781 0.672227 0.135323
-1.405001 0.665869 0.128663
-1.396525 0.659815 0.122306
-1.388956 0.654365 0.118976
-1.381690 0.649219 0.117159
-1.375333 0.644375 0.118370
-1.368673 0.639531 0.117765
-1.341729 0.620156 0.113829
-1.336885 0.616523 0.118370
-1.332344 0.613193 0.124425
-1.326290 0.608652 0.124425
-1.318721 0.603203 0.119581
-1.313272 0.599267 0.122608
-1.308125 0.595332 0.125030
-1.300557 0.589883 0.118976
-1.290869 0.583222 0.106563
-1.293594 0.582314 0.107774
-1.303584 0.588974 0.120186
-1.310850 0.594121 0.124122
-1.316905 0.598662 0.122911
-1.322960 0.603203 0.122003
-1.330528 0.608349 0.125333
-1.335977 0.612285 0.122003
-1.341729 0.616523 0.118370
-1.347481 0.620762 0.115040
-1.375030 0.640742 0.116554
-1.381993 0.645586 0.116251
-1.389864 0.651338 0.119581
-1.398341 0.657393 0.123517
-1.408029 0.664356 0.132296
-1.416808 0.670411 0.137745
-1.424982 0.676465 0.141681
-1.433458 0.682217 0.144708
-1.441935 0.688575 0.148644
-1.449201 0.693721 0.148038
-1.456164 0.698868 0.146222
-1.463127 0.703712 0.144103
-1.470392 0.709161 0.141984
-1.476144 0.713399 0.135626
-1.483410 0.718848 0.133204
-1.490373 0.723692 0.129571
-1.499758 0.730352 0.134415
-1.507932 0.736407 0.135626
-1.516711 0.742765 0.138351
-1.523977 0.747911 0.135323
-1.531242 0.753360 0.132296
-1.537903 0.758204 0.126241
-1.543352 0.762442 0.115645
-1.552131 0.768800 0.116856
-1.560002 0.774552 0.114737
-1.568479 0.780607 0.115343
-1.576350 0.786359 0.112921
-1.585432 0.792716 0.114434
-1.591487 0.797257 0.104747
-1.596634 0.801496 0.092335
-1.601477 0.805128 0.078106
-1.607835 0.809972 0.069024
-1.617522 0.816935 0.072051
-1.629026 0.825109 0.081739
-1.640530 0.832980 0.090216
-1.651429 0.840851 0.096876
-1.662327 0.848722 0.102930
-1.672620 0.855988 0.107472
-1.682611 0.863254 0.110196
-1.691390 0.869611 0.107774
-1.700472 0.875969 0.106866
-1.710160 0.883234 0.108077
-1.718031 0.888986 0.102325
-1.727113 0.895647 0.101417
-1.737103 0.902912 0.102325
-1.745883 0.909270 0.099298
-1.755570 0.916233 0.099600
-1.764652 0.922893 0.097178
-1.772524 0.928645 0.089307
-1.780698 0.934700 0.083858
-1.788871 0.940452 0.076895
-1.799467 0.948020 0.079014
-1.807944 0.954378 0.073262
-1.819145 0.962249 0.078106
-1.828530 0.969514 0.075381
-1.837007 0.975872 0.069327
-1.846694 0.982835 0.067510
-1.857895 0.991009 0.070840
-1.868188 0.998274 0.069932
-1.878784 1.005843 0.070235
-1.889077 1.013109 0.070235
-1.898765 1.020071 0.067510
-1.907847 1.026732 0.062364
-1.918443 1.034603 0.062667
-1.928433 1.041868 0.059942
-1.938423 1.049134 0.057823
-1.948414 1.056400 0.053584
-1.957496 1.063060 0.048741
-1.969908 1.072142 0.054493
-1.981109 1.080013 0.056006
-1.991100 1.087279 0.051465
-2.000182 1.094242 0.044805
-2.009566 1.100902 0.038448
-2.019557 1.108168 0.033907
-2.028336 1.114828 0.025733
-2.041051 1.123910 0.031182
-2.052252 1.132084 0.031182
-2.063756 1.140258 0.032393
-2.075260 1.148735 0.032393
-2.086462 1.156606 0.031485
-2.097360 1.164780 0.029971
-2.107956 1.172348 0.026641
-2.120065 1.181127 0.029365
-2.133386 1.190512 0.035420
-2.144587 1.198686 0.033907
-2.155183 1.206557 0.030879
-2.165476 1.214126 0.024522
-2.176072 1.221997 0.020889
-2.185759 1.228960 0.012109
-2.196961 1.237436 0.010293
-2.209070 1.246216 0.011201
-2.220877 1.254692 0.010596
-2.234500 1.264380 0.016953
-2.247215 1.273462 0.020283
-2.258113 1.281333 0.015440
-2.269920 1.290113 0.014531
-2.233289 1.221997 0.010899
-2.191209 1.191118 0.015137
-2.180613 1.183549 0.016045
-2.169714 1.175678 0.014531
-2.159421 1.168110 0.016045
-2.149431 1.160844 0.019375
-2.140349 1.154184 0.024522
-2.130056 1.146615 0.026338
-2.118249 1.138139 0.021192
-2.108561 1.131176 0.023613
-2.097966 1.123607 0.023613
-2.087370 1.116039 0.023311
-2.075563 1.107562 0.017861
-2.064967 1.099388 0.016045
-2.054372 1.091820 0.014834
-2.044078 1.084252 0.015137
-2.034088 1.076986 0.015440
-2.025309 1.070326 0.021192
-2.017438 1.064574 0.030274
-2.008658 1.058216 0.036328
-2.000484 1.052162 0.042989
-1.991705 1.045804 0.048135
-1.981715 1.038538 0.047832
-1.970211 1.030364 0.042383
-1.960523 1.023402 0.043291
-1.952652 1.017347 0.051163
-1.942662 1.010081 0.051163
-1.934488 1.004026 0.056612
-1.925406 0.997366 0.059942
-1.916929 0.991009 0.064483
-1.908150 0.984651 0.068419
-1.899068 0.977991 0.070538
-1.889380 0.971028 0.070235
-1.879390 0.963762 0.068419
-1.870308 0.956799 0.069932
-1.860620 0.949837 0.069327
-1.851538 0.943479 0.071143
-1.840942 0.935608 0.066299
-1.831557 0.928948 0.066299
-1.823989 0.923196 0.072354
-1.815815 0.917141 0.077198
-1.807338 0.910783 0.079620
-1.798862 0.904729 0.082344
-1.789780 0.898371 0.083555
-1.781303 0.892014 0.085674
-1.771918 0.885354 0.084464
-1.762836 0.878693 0.084464
-1.754359 0.872336 0.085977
-1.744975 0.865373 0.084161
-1.738314 0.860529 0.092940
-1.729232 0.853869 0.092335
-1.721361 0.848117 0.095665
-1.712582 0.841760 0.096270
-1.701683 0.833888 0.087491
-1.692298 0.827228 0.085069
-1.681703 0.819660 0.078409
-1.672923 0.813302 0.078106
-1.663538 0.806339 0.073868
-1.653851 0.799376 0.069932
-1.643558 0.792413 0.063575
-1.633265 0.784845 0.056006
-1.625091 0.778790 0.057217
-1.619944 0.775157 0.069327
-1.614495 0.770919 0.079317
-1.608743 0.766378 0.087491
-1.600569 0.760323 0.088096
-1.594514 0.756085 0.095968
-1.589368 0.752149 0.106866
-1.583313 0.747306 0.113224
-1.574837 0.741251 0.111710
-1.567874 0.736104 0.114434
-1.561213 0.730958 0.118976
-1.554250 0.725811 0.122306
-1.547893 0.721270 0.128058
-1.541535 0.716426 0.131993
-1.533664 0.710977 0.131993
-1.525793 0.705225 0.131388
-1.517014 0.698868 0.126241
-1.509143 0.693419 0.125938
-1.502180 0.687969 0.127452
-1.495822 0.683428 0.130782
-1.489767 0.678887 0.135929
-1.483107 0.674043 0.137745
-1.475842 0.668594 0.138351
-1.468879 0.663750 0.139562
-1.462521 0.658907 0.141681
-1.454953 0.653457 0.140167
-1.448898 0.648916 0.143800
-1.441632 0.643770 0.142892
-1.435578 0.639229 0.145919
-1.427706 0.633477 0.143194
-1.418322 0.626816 0.133507
-1.407423 0.619248 0.119581
-1.399552 0.613496 0.115343
-1.379269 0.598965 0.114434
-1.373214 0.594424 0.116554
-1.366251 0.589580 0.114737
-1.360196 0.585039 0.115645
-1.354141 0.580498 0.116856
-1.347784 0.575957 0.116856
-1.341426 0.571416 0.115948
-1.334464 0.566269 0.113829
-1.327803 0.561728 0.112618
-1.321143 0.556884 0.110196
-1.314180 0.551738 0.107169
-1.315088 0.549316 0.107472
-1.322354 0.554462 0.111104
-1.328712 0.559003 0.111104
-1.335977 0.564150 0.113526
-1.343546 0.569599 0.117159
-1.350206 0.574443 0.118370
-1.356866 0.579287 0.118067
-1.363224 0.583828 0.116554
-1.370186 0.588672 0.117462
-1.376241 0.593213 0.114737
-1.382901 0.598056 0.113829
-1.405001 0.614101 0.118370
-1.414992 0.621064 0.128360
-1.425587 0.628330 0.139259
-1.434669 0.634688 0.145616
-1.441935 0.640137 0.145616
-1.448898 0.644981 0.144103
-1.455558 0.649824 0.141075
-1.462824 0.655274 0.140773
-1.470090 0.660723 0.139864
-1.477355 0.665869 0.138653
-1.485226 0.671319 0.138653
-1.491584 0.676163 0.134415
-1.499152 0.681612 0.132901
-1.505813 0.686758 0.128360
-1.513078 0.691905 0.125636
-1.521858 0.697960 0.128360
-1.530940 0.704620 0.132599
-1.539416 0.710977 0.133810
-1.546379 0.715821 0.129571
-1.553342 0.720968 0.124728
-1.560305 0.726114 0.119581
-1.567874 0.731563 0.116554
-1.575139 0.737013 0.112618
-1.583919 0.743370 0.113224
-1.591184 0.748819 0.108682
-1.596936 0.753058 0.098389
-1.602688 0.757296 0.087794
-1.610559 0.763048 0.084464
-1.616311 0.767589 0.073565
-1.622063 0.771827 0.062667
-1.628118 0.776671 0.052373
-1.638714 0.783937 0.057823
-1.649007 0.791505 0.062969
-1.660511 0.799679 0.071446
-1.670804 0.806945 0.075684
-1.680794 0.814210 0.078712
-1.691996 0.822082 0.085372
-1.702894 0.829650 0.090821
-1.714095 0.837824 0.097481
-1.722875 0.844181 0.096270
-1.731654 0.850539 0.092940
-1.740131 0.856896 0.089307
-1.748002 0.862648 0.082344
-1.757992 0.869914 0.083858
-1.767983 0.876877 0.085069
-1.777367 0.883840 0.083253
-1.786752 0.890803 0.081739
-1.797045 0.898069 0.083555
-1.806127 0.904729 0.081133
-1.815209 0.911389 0.076895
-1.823989 0.917444 0.072657
-1.832768 0.923801 0.067813
-1.842759 0.931067 0.067813
-1.853960 0.939241 0.070840
-1.863647 0.946204 0.069327
-1.874546 0.954075 0.071446
-1.884233 0.961341 0.069024
-1.894527 0.968909 0.068721
-1.904820 0.976477 0.068116
-1.914810 0.983440 0.065997
-1.923892 0.990101 0.061153
-1.933277 0.997063 0.056612
-1.942056 1.003421 0.049649
-1.952955 1.011292 0.050254
-1.962037 1.017952 0.044200
-1.972027 1.025521 0.041475
-1.983834 1.033695 0.044805
-1.994430 1.041263 0.042686
-2.003814 1.048226 0.036934
-2.012594 1.054886 0.029063
-2.022281 1.062152 0.024219
-2.031364 1.068812 0.016651
-2.042868 1.077289 0.018164
-2.053766 1.085160 0.016651
-2.064362 1.092728 0.014531
-2.076471 1.101508 0.017861
-2.089186 1.110590 0.022403
-2.100690 1.118764 0.023311
-2.111891 1.126938 0.023008
-2.123093 1.135111 0.021797
-2.135505 1.143891 0.024522
-2.146403 1.152065 0.022100
-2.156091 1.159028 0.014834
-2.167595 1.167504 0.014834
-2.179402 1.175981 0.014229
-2.191814 1.184760 0.017256
-2.128845 1.096664 0.016348
-2.118552 1.089095 0.016045
-2.108561 1.081830 0.017256
-2.097663 1.073959 0.016045
-2.088278 1.066996 0.018770
-2.078288 1.059730 0.019072
-2.065573 1.050648 0.010293
-2.055885 1.043685 0.011807
-2.046198 1.036722 0.014531
-2.037116 1.030062 0.017861
-2.027125 1.022493 0.017861
-2.018346 1.016439 0.022403
-2.009869 1.010081 0.028760
-2.000484 1.003421 0.030879
-1.991100 0.996458 0.032696
-1.982320 0.989798 0.036328
-1.972330 0.982229 0.035723
-1.963853 0.976175 0.041172
-1.955377 0.969817 0.045411
-1.945992 0.963460 0.047832
-1.937515 0.957102 0.051768
-1.928433 0.950442 0.054795
-1.920562 0.944387 0.060547
-1.912085 0.938333 0.064786
-1.903306 0.931975 0.067813
-1.893921 0.925012 0.067510
-1.884233 0.918049 0.066905
-1.874243 0.910783 0.064180
-1.863042 0.902610 0.056915
-1.853960 0.896252 0.058731
-1.846391 0.890500 0.065088
-1.838520 0.884748 0.069932
-1.830649 0.878693 0.074171
-1.822778 0.872941 0.079014
-1.813696 0.866281 0.079317
-1.804614 0.859924 0.079620
-1.795532 0.853264 0.079014
-1.786752 0.846906 0.080225
-1.778578 0.840851 0.083253
-1.769496 0.834191 0.082042
-1.760111 0.827531 0.080225
-1.752543 0.821779 0.085372
-1.744369 0.815724 0.086885
-1.733773 0.808156 0.080528
-1.724086 0.801193 0.075987
-1.714398 0.794533 0.073262
-1.704105 0.786964 0.065997
-1.693812 0.779396 0.059336
-1.683519 0.772130 0.052676
-1.672620 0.764562 0.044805
-1.663841 0.758204 0.042686
-1.654154 0.751241 0.038448
-1.645071 0.744581 0.035420
-1.637200 0.739132 0.037237
-1.629935 0.733682 0.040567
-1.622063 0.727930 0.041475
-1.616311 0.723389 0.050254
-1.612073 0.720059 0.063877
-1.608138 0.717032 0.079620
-1.603294 0.713399 0.090216
-1.597542 0.708858 0.097481
-1.592093 0.704620 0.107169
-1.586038 0.700079 0.112921
-1.578167 0.694327 0.113224
-1.569993 0.688575 0.111407
-1.563030 0.683428 0.113829
-1.557581 0.679190 0.120792
-1.550012 0.673741 0.120792
-1.542746 0.668291 0.122306
-1.535178 0.663145 0.122306
-1.527610 0.657393 0.121397
-1.521252 0.652852 0.125030
-1.514592 0.648008 0.127755
-1.507629 0.642861 0.128663
-1.499152 0.636807 0.124122
-1.491584 0.631357 0.122306
-1.485529 0.626816 0.125938
-1.477961 0.621064 0.123819
-1.471603 0.616523 0.127452
-1.465246 0.611982 0.128663
-1.458888 0.607139 0.130177
-1.452228 0.602295 0.131085
-1.446173 0.598056 0.133507
-1.439210 0.592910 0.132901
-1.432248 0.587763 0.131690
-1.424376 0.582314 0.127755
-1.416505 0.576562 0.123517
-1.408029 0.570507 0.116251
-1.401368 0.565664 0.115948
-1.395314 0.561425 0.117159
-1.388653 0.556581 0.115948
-1.381690 0.551435 0.113224
-1.374425 0.546288 0.109893
-1.367765 0.541445 0.108682
-1.361104 0.536601 0.106866
-1.355958 0.532665 0.109591
-1.349903 0.528427 0.109288
-1.342940 0.523280 0.105655
-1.336280 0.518739 0.103536
-1.338096 0.516620 0.101114
-1.344454 0.521161 0.102022
-1.352022 0.526611 0.107169
-1.358682 0.531454 0.107774
-1.364434 0.535693 0.105958
-1.371397 0.540536 0.108077
-1.378360 0.545683 0.108985
-1.386232 0.551132 0.113224
-1.393497 0.556279 0.116251
-1.400763 0.561425 0.117462
-1.407120 0.566269 0.116251
-1.414386 0.571416 0.117765
-1.424376 0.578379 0.128966
-1.432248 0.584131 0.131993
-1.439816 0.589277 0.133810
-1.447082 0.594726 0.135021
-1.453439 0.599267 0.131690
-1.460402 0.604111 0.130480
-1.467062 0.609258 0.128663
-1.474025 0.614404 0.127755
-1.480685 0.619248 0.125333
-1.488254 0.624697 0.125636
-1.495519 0.629844 0.124728
-1.503391 0.635596 0.125333
-1.511867 0.641651 0.128360
-1.519133 0.646797 0.126847
-1.525490 0.651641 0.122306
-1.533059 0.657090 0.120792
-1.541838 0.663448 0.124425
-1.549104 0.668594 0.121700
-1.557278 0.674346 0.121397
-1.563635 0.679190 0.115343
-1.570598 0.684336 0.111407
-1.579378 0.690694 0.113526
-1.586946 0.696143 0.111407
-1.593303 0.700987 0.103839
-1.599055 0.705225 0.094757
-1.605110 0.709766 0.085977
-1.609046 0.713096 0.070235
-1.613890 0.716729 0.056309
-1.619339 0.720665 0.044200
-1.627210 0.726417 0.041778
-1.635384 0.732472 0.039659
-1.643860 0.738526 0.038145
-1.652337 0.744581 0.036934
-1.662630 0.751847 0.041172
-1.672620 0.759112 0.045108
-1.682914 0.766984 0.050254
-1.694418 0.774855 0.058125
-1.705619 0.782726 0.065391
-1.716517 0.790597 0.072354
-1.726810 0.798165 0.075987
-1.737406 0.805431 0.080225
-1.748002 0.813000 0.084766
-1.757084 0.819962 0.084161
-1.765258 0.825714 0.079317
-1.775248 0.832980 0.080528
-1.783725 0.839338 0.076592
-1.793715 0.846301 0.078106
-1.803705 0.853264 0.078712
-1.813696 0.860529 0.080225
-1.823081 0.867189 0.078409
-1.831557 0.873850 0.073868
-1.840639 0.880510 0.069932
-1.849419 0.886867 0.065391
-1.857895 0.892922 0.059336
-1.866977 0.899582 0.056006
-1.879087 0.908059 0.062667
-1.889380 0.915325 0.062969
-1.899673 0.922893 0.063877
-1.910572 0.930764 0.065997
-1.919351 0.937424 0.060850
-1.927525 0.943479 0.052373
-1.937515 0.950442 0.049952
-1.947808 0.958313 0.049649
-1.956890 0.964671 0.043594
-1.966275 0.971634 0.039659
-1.975963 0.978597 0.035420
-1.985953 0.986165 0.033301
-1.995943 0.993431 0.030576
-2.006539 1.000999 0.029063
-2.015621 1.007659 0.021797
-2.025309 1.014925 0.018164
-2.036207 1.022796 0.017559
-2.047106 1.030667 0.016953
-2.056491 1.037630 0.010899
-2.067692 1.045804 0.011807
-2.080407 1.054583 0.016953
-2.091608 1.063060 0.017861
-2.102809 1.070931 0.017256
-2.113708 1.078802 0.014834
-2.125817 1.087582 0.018770
-2.205740 1.145707 0.016348
-2.099177 1.023704 0.012109
-2.089186 1.016439 0.013320
-2.077985 1.008265 0.009082
-2.068297 1.001302 0.011807
-2.058307 0.994036 0.012109
-2.049528 0.987376 0.016953
-2.039235 0.980110 0.016348
-2.028336 0.972239 0.012412
-2.019254 0.965276 0.015742
-2.010172 0.958919 0.019678
-2.000484 0.951653 0.019981
-1.991705 0.945598 0.023916
-1.982926 0.938938 0.028155
-1.974146 0.932581 0.031787
-1.964761 0.925618 0.033301
-1.956588 0.919866 0.040264
-1.949019 0.913811 0.048135
-1.940240 0.907756 0.051465
-1.931460 0.901096 0.053584
-1.922076 0.894133 0.054493
-1.911177 0.886565 0.049346
-1.901489 0.879299 0.048741
-1.891499 0.872033 0.046319
-1.882720 0.865676 0.048438
-1.874546 0.859621 0.053282
-1.867280 0.854172 0.060547
-1.858198 0.847814 0.061758
-1.848813 0.840851 0.061153
-1.841548 0.835402 0.068419
-1.832768 0.829045 0.069932
-1.822172 0.821476 0.064483
-1.812788 0.814513 0.063575
-1.805219 0.809064 0.068419
-1.795834 0.802404 0.067510
-1.786450 0.795441 0.065391
-1.776156 0.787872 0.060245
-1.765863 0.780607 0.055704
-1.755873 0.773644 0.051163
-1.745883 0.766378 0.046924
-1.736498 0.759415 0.044200
-1.726810 0.752452 0.040264
-1.717728 0.745792 0.038448
-1.708646 0.739434 0.036934
-1.699261 0.732774 0.033907
-1.690482 0.726417 0.033301
-1.682611 0.720665 0.035420
-1.676253 0.715821 0.042383
-1.670199 0.711280 0.050860
-1.662327 0.705528 0.052676
-1.653851 0.699171 0.051465
-1.645980 0.693419 0.052979
-1.638109 0.687969 0.054795
-1.630540 0.682217 0.056006
-1.622972 0.676465 0.057823
-1.617220 0.672227 0.066602
-1.613587 0.669502 0.082042
-1.608138 0.665264 0.091124
-1.601175 0.660117 0.094454
-1.594212 0.654971 0.097481
-1.587551 0.650127 0.101114
-1.581497 0.645283 0.106866
-1.574837 0.640440 0.110802
-1.567571 0.635293 0.112013
-1.559397 0.629238 0.110196
-1.553948 0.625303 0.117462
-1.545471 0.619248 0.114132
-1.536389 0.612588 0.108077
-1.528215 0.606836 0.105655
-1.521252 0.601689 0.106261
-1.514289 0.596543 0.107472
-1.507932 0.592002 0.110499
-1.502180 0.587763 0.115645
-1.497033 0.583525 0.122003
-1.489767 0.578681 0.122003
-1.481896 0.572929 0.118673
-1.474328 0.567177 0.116251
-1.467668 0.562636 0.117462
-1.461613 0.558095 0.120489
-1.455861 0.553857 0.124425
-1.449201 0.549013 0.123819
-1.440421 0.542656 0.116554
-1.431642 0.536601 0.109591
-1.424376 0.531152 0.106261
-1.416505 0.525702 0.102022
-1.410148 0.520859 0.102022
-1.403488 0.516318 0.101720
-1.397130 0.511474 0.101114
-1.390167 0.506630 0.099298
-1.381993 0.500575 0.091729
-1.371397 0.493310 0.076895
-1.363224 0.487558 0.069629
-1.356866 0.482714 0.068721
-1.351114 0.478778 0.070235
-1.352325 0.476356 0.069327
-1.358380 0.480897 0.068721
-1.365040 0.485741 0.069932
-1.372306 0.490888 0.072657
-1.383810 0.498759 0.090518
-1.391984 0.504511 0.096270
-1.399552 0.509960 0.099600
-1.406515 0.515107 0.100509
-1.413781 0.520253 0.102628
-1.420744 0.525097 0.102628
-1.428917 0.531152 0.107472
-1.436789 0.536601 0.110196
-1.446476 0.543564 0.119884
-1.453742 0.548710 0.121095
-1.460099 0.553251 0.117765
-1.466760 0.558398 0.115948
-1.473722 0.563242 0.115343
-1.480685 0.568388 0.114737
-1.488859 0.574443 0.117462
-1.497336 0.580195 0.120489
-1.503391 0.584736 0.115343
-1.508840 0.588672 0.107774
-1.515500 0.593818 0.105050
-1.522766 0.598965 0.103233
-1.530031 0.604414 0.101417
-1.537903 0.609863 0.101114
-1.548196 0.617432 0.110196
-1.557581 0.623789 0.114737
-1.563333 0.628027 0.107169
-1.572415 0.634688 0.111407
-1.579075 0.639531 0.106261
-1.586038 0.644678 0.101114
-1.593303 0.650127 0.098087
-1.600872 0.655576 0.095665
-1.608440 0.661026 0.092032
-1.615403 0.666172 0.087188
-1.618128 0.668594 0.066602
-1.624183 0.673135 0.058125
-1.632357 0.679190 0.056006
-1.640530 0.684942 0.054795
-1.649007 0.690997 0.053584
-1.657484 0.697051 0.052676
-1.666566 0.703712 0.053584
-1.675042 0.710069 0.051768
-1.681400 0.714913 0.042686
-1.688363 0.720059 0.035117
-1.696537 0.725811 0.031485
-1.706224 0.732774 0.033907
-1.715609 0.739434 0.034512
-1.725297 0.746397 0.036631
-1.735590 0.753663 0.039356
-1.745883 0.761232 0.043291
-1.756479 0.768800 0.047530
-1.767680 0.776671 0.053887
-1.777973 0.784240 0.056915
-1.788871 0.792111 0.061758
-1.799164 0.799376 0.064483
-1.809457 0.806642 0.065694
-1.817934 0.813302 0.060850
-1.828833 0.821173 0.065997
-1.839731 0.828742 0.069024
-1.847602 0.834797 0.061758
-1.855776 0.840549 0.056006
-1.866372 0.848117 0.057520
-1.874546 0.854172 0.050860
-1.883628 0.860832 0.047530
-1.893316 0.867795 0.045411
-1.903911 0.875363 0.046924
-1.915113 0.883537 0.049649
-1.926011 0.891408 0.052676
-1.936607 0.898977 0.052373
-1.945992 0.905940 0.048741
-1.954468 0.911994 0.041475
-1.962945 0.918655 0.034512
-1.972935 0.925920 0.032393
-1.982320 0.932581 0.027246
-1.991402 0.939241 0.021192
-2.001393 0.946506 0.017861
-2.012594 0.954680 0.019981
-2.022584 0.961946 0.017256
-2.032272 0.969212 0.012109
-2.043473 0.977083 0.013018
-2.054069 0.984954 0.011807
-2.066178 0.993431 0.015137
-2.077682 1.001907 0.017861
-2.099782 1.017952 0.016651
-2.186667 1.039144 0.021192
-2.133083 1.000394 0.014531
-2.050739 0.940754 0.011504
-2.041959 0.934397 0.015440
-2.031666 0.926526 0.014531
-2.021373 0.918957 0.012715
-2.011383 0.911994 0.013320
-2.001695 0.905031 0.014531
-1.992008 0.897766 0.014531
-1.982926 0.891106 0.017559
-1.974752 0.885051 0.023311
-1.965670 0.878391 0.025733
-1.957193 0.872336 0.029971
-1.949019 0.866281 0.035117
-1.939332 0.859318 0.034815
-1.931158 0.853264 0.039659
-1.921773 0.846603 0.040869
-1.912993 0.839943 0.043291
-1.904517 0.833888 0.046924
-1.893921 0.826017 0.042080
-1.883628 0.818449 0.038145
-1.873638 0.811183 0.035723
-1.863345 0.803615 0.031787
-1.851841 0.795744 0.023613
-1.846089 0.791505 0.035723
-1.837612 0.785148 0.038750
-1.829438 0.779396 0.042686
-1.820053 0.772433 0.041475
-1.809457 0.764864 0.034815
-1.798559 0.756993 0.028457
-1.788871 0.750030 0.025733
-1.778578 0.742765 0.019981
-1.769496 0.736104 0.018770
-1.760111 0.729444 0.017256
-1.750727 0.722481 0.014531
-1.743461 0.716729 0.020283
-1.738012 0.713096 0.032393
-1.731654 0.708253 0.040567
-1.723178 0.702198 0.040869
-1.713187 0.694932 0.035420
-1.705619 0.689180 0.038750
-1.698050 0.683731 0.042080
-1.691693 0.678887 0.048741
-1.684730 0.673741 0.053887
-1.676556 0.667686 0.054493
-1.668988 0.662237 0.057217
-1.660814 0.656485 0.057520
-1.652640 0.650430 0.056915
-1.644466 0.644375 0.056915
-1.637503 0.639229 0.059942
-1.630843 0.634385 0.065391
-1.624788 0.629844 0.071749
-1.617522 0.624697 0.074776
-1.610559 0.619248 0.077803
-1.604807 0.615010 0.084464
-1.598147 0.609863 0.088702
-1.588157 0.602900 0.080528
-1.577561 0.595332 0.070235
-1.570598 0.590488 0.072657
-1.564543 0.585947 0.077803
-1.557581 0.580800 0.079620
-1.551829 0.576259 0.085372
-1.545774 0.572021 0.090518
-1.539719 0.567480 0.095059
-1.533967 0.563242 0.100206
-1.527610 0.558398 0.103839
-1.521252 0.553857 0.105958
-1.514592 0.549013 0.108380
-1.508234 0.544169 0.110499
-1.500666 0.538720 0.108985
-1.493098 0.533271 0.106261
-1.486135 0.528124 0.105958
-1.479777 0.523583 0.108380
-1.473117 0.518739 0.108985
-1.466457 0.513896 0.108682
-1.460099 0.509052 0.109288
-1.452531 0.503603 0.106563
-1.444357 0.497851 0.101114
-1.437091 0.492704 0.098389
-1.431037 0.488466 0.100206
-1.424074 0.483319 0.098389
-1.416202 0.477567 0.092637
-1.406515 0.470907 0.080528
-1.397736 0.464852 0.072657
-1.390470 0.459403 0.069024
-1.385021 0.455467 0.071143
-1.379269 0.451229 0.072354
-1.372306 0.446385 0.069024
-1.376241 0.446083 0.069629
-1.383507 0.451229 0.072657
-1.389562 0.455770 0.071749
-1.395616 0.460008 0.069932
-1.403790 0.465760 0.075381
-1.413781 0.473026 0.088096
-1.423165 0.479384 0.097481
-1.430431 0.484833 0.099600
-1.437394 0.489677 0.099600
-1.444357 0.494823 0.101114
-1.452531 0.500575 0.105655
-1.460402 0.506024 0.107774
-1.467365 0.511171 0.108077
-1.474328 0.516015 0.107774
-1.480685 0.520859 0.105352
-1.487346 0.525702 0.102930
-1.494914 0.531152 0.104141
-1.503088 0.536904 0.106866
-1.510959 0.542656 0.108985
-1.517619 0.547499 0.106866
-1.524582 0.552646 0.104444
-1.530940 0.557187 0.099298
-1.537297 0.562031 0.095665
-1.543655 0.566572 0.090518
-1.550012 0.571416 0.085977
-1.556370 0.575957 0.080831
-1.563030 0.580800 0.075684
-1.569993 0.586250 0.072960
-1.576956 0.591093 0.069327
-1.587249 0.598662 0.076895
-1.598450 0.606230 0.087794
-1.605110 0.611377 0.082647
-1.611770 0.616221 0.076895
-1.619036 0.621670 0.073565
-1.626605 0.627119 0.070235
-1.633567 0.631963 0.064180
-1.640833 0.637715 0.060245
-1.648099 0.642861 0.055401
-1.657181 0.649522 0.056915
-1.666263 0.655879 0.058125
-1.674134 0.661631 0.055401
-1.682308 0.667686 0.053584
-1.690482 0.673741 0.051163
-1.697445 0.678584 0.043594
-1.705316 0.684336 0.039659
-1.713793 0.690391 0.037842
-1.723480 0.697354 0.039659
-1.733168 0.704317 0.041172
-1.739828 0.709464 0.032393
-1.745883 0.714005 0.021192
-1.753148 0.719454 0.013623
-1.762836 0.726417 0.014229
-1.772221 0.733077 0.014229
-1.782211 0.740343 0.016651
-1.794018 0.748819 0.023916
-1.804614 0.756388 0.028155
-1.814907 0.763653 0.029668
-1.826411 0.771827 0.036631
-1.835796 0.778790 0.035420
-1.843667 0.784542 0.028457
-1.850630 0.789992 0.017861
-1.863042 0.798468 0.026944
-1.875757 0.807550 0.037539
-1.885747 0.814816 0.037539
-1.896646 0.822687 0.040264
-1.908755 0.831164 0.047227
-1.918443 0.838429 0.045108
-1.926617 0.844484 0.038145
-1.936001 0.851144 0.034209
-1.945992 0.858410 0.032696
-1.955074 0.865373 0.028760
-1.965064 0.872336 0.026338
-1.974752 0.879602 0.023916
-1.983834 0.886262 0.017559
-1.993521 0.893225 0.014229
-2.003814 0.900793 0.013320
-2.014410 0.908664 0.013320
-2.025309 0.916535 0.013623
-2.036207 0.924407 0.014229
-2.047409 0.932278 0.015137
-2.192722 1.037630 0.014229
-2.244187 1.030667 0.015440
-2.170925 0.977386 0.014834
-2.149734 0.961946 0.012715
-2.109470 0.932883 0.014834
-2.098874 0.925315 0.013623
-2.089186 0.918049 0.014531
-2.048014 0.888078 0.009990
-2.038932 0.881418 0.013623
-2.029547 0.874455 0.015440
-2.019557 0.867492 0.014834
-2.009869 0.860226 0.014531
-2.001090 0.853869 0.018467
-1.990494 0.845998 0.015742
-1.980806 0.839338 0.015440
-1.971422 0.832677 0.016651
-1.962642 0.826017 0.019375
-1.953863 0.819660 0.022705
-1.945084 0.812697 0.024824
-1.936304 0.806339 0.027852
-1.926011 0.799074 0.024522
-1.916021 0.791808 0.022705
-1.905728 0.784240 0.018164
-1.896948 0.777882 0.020283
-1.887866 0.771222 0.021192
-1.877573 0.763956 0.017559
-1.867280 0.756388 0.012715
-1.858198 0.750030 0.013320
-1.848813 0.743370 0.012412
-1.839428 0.736710 0.011807
-1.829438 0.729444 0.007871
-1.822778 0.724298 0.016045
-1.813696 0.717637 0.015742
-1.806733 0.712491 0.022705
-1.798862 0.706436 0.026641
-1.790688 0.700381 0.028457
-1.782211 0.694629 0.029668
-1.774340 0.688877 0.033301
-1.767074 0.683428 0.037237
-1.758598 0.677071 0.038145
-1.749516 0.670713 0.036328
-1.741039 0.664356 0.036934
-1.732865 0.658604 0.037842
-1.722269 0.650733 0.029365
-1.712884 0.644072 0.026035
-1.705013 0.638320 0.027549
-1.697748 0.633174 0.032393
-1.691390 0.628330 0.038750
-1.684427 0.623184 0.042686
-1.678372 0.618340 0.049952
-1.671410 0.613496 0.054795
-1.665355 0.608652 0.061153
-1.658089 0.603506 0.064180
-1.650823 0.598359 0.067208
-1.644163 0.593213 0.070840
-1.636595 0.587763 0.072354
-1.629026 0.582314 0.073262
-1.622366 0.577168 0.076895
-1.614798 0.571718 0.077198
-1.605413 0.565058 0.071446
-1.594817 0.557490 0.060547
-1.587249 0.552040 0.060245
-1.579378 0.546288 0.059336
-1.573020 0.541445 0.062667
-1.566965 0.536904 0.067208
-1.560911 0.532665 0.072354
-1.554856 0.528124 0.076290
-1.547590 0.522675 0.076290
-1.540930 0.517831 0.078409
-1.533362 0.512382 0.077501
-1.526701 0.507538 0.078106
-1.519738 0.502392 0.078409
-1.511867 0.496942 0.075381
-1.505510 0.492099 0.077803
-1.500363 0.488163 0.083253
-1.493098 0.483016 0.082344
-1.486740 0.478173 0.083253
-1.480383 0.473632 0.084766
-1.473420 0.468485 0.082950
-1.466760 0.463641 0.082950
-1.458888 0.458192 0.079014
-1.451925 0.453046 0.076895
-1.444357 0.447596 0.072960
-1.438605 0.443358 0.074776
-1.432248 0.438817 0.074473
-1.424074 0.433065 0.068419
-1.417111 0.427918 0.066299
-1.408937 0.422166 0.058428
-1.401974 0.417020 0.055098
-1.396525 0.413084 0.057520
-1.389259 0.407938 0.052676
-1.392286 0.406424 0.055401
-1.398946 0.411268 0.057520
-1.405304 0.415809 0.057217
-1.413781 0.421561 0.064180
-1.421046 0.427010 0.067813
-1.429220 0.432762 0.072657
-1.437394 0.438514 0.078106
-1.443449 0.443055 0.076290
-1.449806 0.447596 0.075381
-1.457375 0.453046 0.077803
-1.465549 0.458798 0.082344
-1.473420 0.464247 0.085674
-1.480080 0.469091 0.084161
-1.487346 0.474540 0.085069
-1.493400 0.478778 0.081133
-1.500363 0.483925 0.081436
-1.506115 0.488163 0.075987
-1.512775 0.493007 0.072657
-1.520949 0.499062 0.076290
-1.528215 0.504208 0.075684
-1.535481 0.509355 0.075381
-1.543655 0.515107 0.076592
-1.550618 0.520253 0.074776
-1.558186 0.525702 0.073868
-1.564241 0.530243 0.068116
-1.570901 0.535087 0.063877
-1.577258 0.539931 0.058731
-1.585130 0.545683 0.059034
-1.593303 0.551435 0.059336
-1.603294 0.558701 0.066602
-1.614192 0.566269 0.075987
-1.622366 0.572324 0.075987
-1.629935 0.577773 0.073868
-1.638109 0.583525 0.072960
-1.645071 0.588672 0.068721
-1.652640 0.594424 0.065391
-1.660511 0.599873 0.062969
-1.667777 0.605322 0.059336
-1.675042 0.610469 0.053584
-1.681703 0.615312 0.046319
-1.688363 0.620459 0.039659
-1.695628 0.625605 0.033604
-1.703197 0.631055 0.029365
-1.711371 0.637109 0.026944
-1.720453 0.643770 0.026641
-1.732865 0.652852 0.039053
-1.741039 0.658907 0.036631
-1.750424 0.665567 0.036934
-1.759203 0.671621 0.036026
-1.768891 0.678584 0.037539
-1.777065 0.684639 0.033604
-1.785239 0.690694 0.029365
-1.794321 0.697051 0.027852
-1.803705 0.703712 0.026944
-1.812788 0.710674 0.026641
-1.820356 0.716124 0.018770
-1.827319 0.721573 0.009385
-1.837309 0.728536 0.009688
-1.847602 0.736104 0.012412
-1.856382 0.742462 0.008477
-1.867583 0.750333 0.013018
-1.878179 0.757901 0.015742
-1.888775 0.765773 0.018467
-1.898765 0.772736 0.018164
-1.909058 0.780304 0.018770
-1.920562 0.788478 0.024219
-1.930249 0.795441 0.022403
-1.941451 0.803615 0.025430
-1.950836 0.810578 0.023008
-1.959918 0.816935 0.017861
-1.969908 0.824504 0.016953
-1.989889 0.838732 0.012715
-2.001695 0.847209 0.017861
-2.011686 0.854474 0.015742
-2.022584 0.862346 0.016348
-2.031969 0.869309 0.012412
-2.043170 0.877482 0.013623
-2.052858 0.884445 0.009385
-2.098268 0.917141 0.016045
-2.109167 0.925315 0.016045
-2.176374 0.973753 0.016651
-2.156697 0.912903 0.015137
-2.105837 0.875666 0.014229
-2.095846 0.868400 0.013926
-2.067389 0.847814 0.019375
-2.047409 0.833586 0.017559
-2.037418 0.826320 0.016651
-2.028033 0.819357 0.018770
-1.988678 0.790597 0.015440
-1.932066 0.749425 0.015440
-1.923589 0.743067 0.018770
-1.875454 0.708555 0.010899
-1.866675 0.702198 0.011504
-1.858804 0.696446 0.016045
-1.852143 0.690997 0.023916
-1.844272 0.685245 0.028155
-1.835190 0.678887 0.028457
-1.825805 0.671924 0.025127
-1.816723 0.665567 0.024219
-1.808247 0.659209 0.024824
-1.800981 0.654063 0.030576
-1.793412 0.648311 0.033907
-1.785239 0.642559 0.035723
-1.778276 0.637412 0.041778
-1.770102 0.631357 0.043594
-1.761322 0.625000 0.041778
-1.752846 0.618945 0.041778
-1.743461 0.611982 0.038448
-1.733471 0.605019 0.032393
-1.723480 0.597754 0.026035
-1.713490 0.590488 0.019981
-1.705316 0.584433 0.019981
-1.697445 0.578984 0.021192
-1.691693 0.574443 0.029668
-1.686244 0.570507 0.038448
-1.679583 0.565361 0.042686
-1.672923 0.560517 0.048438
-1.665960 0.555371 0.051768
-1.659300 0.550527 0.056006
-1.652337 0.545380 0.058428
-1.644769 0.539931 0.059034
-1.635687 0.533271 0.054493
-1.626907 0.527216 0.050557
-1.618128 0.520859 0.046016
-1.609651 0.514501 0.042080
-1.601780 0.509052 0.041475
-1.594212 0.503603 0.041172
